-0.168418 0.018881 0.793000 -0.665537 0.662223 0.344269
-0.165814 0.018929 0.795000 -0.664692 0.661327 0.347607
-0.163473 0.018833 0.791000 0.795574 0.398786 0.456105
-0.160866 0.018881 0.793000 -0.43881 0.871025 0.22082
-0.115581 0.015619 0.656000 -0.984831 -9.41251e-07 -0.173518
-0.112003 0.015643 0.657000 -0.567268 0.565536 0.598646
-0.105907 0.015667 0.658000 -0.237347 0.942224 0.236389
-0.102923 0.015786 0.663000 -0.92686 0.366847 0.0797146
-0.099583 0.015857 0.666000 -0.91729 -0.304835 0.256234
-0.095921 0.015881 0.667000 -0.395696 -0.792581 0.463939
-0.094509 0.015857 0.666000 0.495746 -0.497238 0.712032
-0.090294 0.015786 0.663000 0.872862 0 0.487967
-0.089300 0.015833 0.665000 -0.66352 -0.663522 0.345658
-0.087769 0.015786 0.663000 0.626176 0.626172 0.464555
-0.084233 0.015833 0.665000 -0.892725 0 0.450602
-0.075593 0.015881 0.667000 -0.887215 0 0.461356
-0.072105 0.015952 0.670000 -0.907113 -0.301462 0.29371
-0.070723 0.015929 0.669000 0.586242 0 0.810136
-0.068276 0.015952 0.670000 -0.539877 -0.539878 0.645806
-0.064832 0.016048 0.674000 -0.976056 0 0.21752
-0.063466 0.016357 0.687000 -0.853243 -0.521208 0.0178485
-0.061795 0.016262 0.683000 0.75293 -0.570523 0.328026
-0.059107 0.016238 0.682000 0.37542 -0.754107 0.538872
-0.057892 0.016262 0.683000 -0.635727 0 0.771914
-0.057089 0.016405 0.689000 -0.940742 -0.311762 0.133453
-0.053229 0.016429 0.690000 -0.52813 -0.52813 0.664949
-0.051990 0.016452 0.691000 -0.527423 -0.527423 0.66607
-0.049571 0.016524 0.694000 -0.89398 -0.297126 0.335433
-0.050473 0.018833 0.791000 -0.99797 -0 -0.06368
-0.048843 0.018786 0.789000 0.775079 0 0.631864
-0.047280 0.018762 0.788000 0.538962 0 0.84233
-0.042831 0.018786 0.789000 -0.379928 0.756996 0.531612
-0.040230 0.018976 0.797000 -0.931163 0.344386 0.119724
-0.033429 0.018571 0.780000 0.70504 0.705041 0.0763893
-0.032393 0.018833 0.791000 -0.879909 0.469712 0.0716265
-0.175527 0.020340 0.791000 0.586692 0.58669 0.5582
-0.174460 0.020391 0.793000 -0.882347 0 0.470599
-0.172077 0.020289 0.789000 0.655841 0.65584 0.373827
-0.167993 0.020340 0.791000 -0.666151 0.662763 0.342035
-0.165397 0.020391 0.793000 -0.665251 0.661927 0.345389
-0.163473 0.020340 0.791000 0.720698 0 0.693249
-0.162376 0.020391 0.793000 -0.655146 -0.655148 0.37625
-0.157447 0.020340 0.791000 0.591078 0.591077 0.548866
-0.156334 0.020391 0.793000 -0.873918 0 0.486074
-0.115581 0.016869 0.656000 -0.984831 -0 -0.173518
-0.114157 0.016843 0.655000 0.502868 0.502868 0.703027
-0.105746 0.016894 0.657000 -0.83038 0.413289 0.373713
-0.103544 0.017151 0.667000 -0.929473 -0.368425 -0.0184989
-0.090703 0.017126 0.666000 0.284988 -0.860143 0.423007
-0.088033 0.017100 0.665000 0.374069 -0.751538 0.543381
-0.084360 0.017126 0.666000 -0.545633 -0.545632 0.636059
-0.082967 0.017100 0.665000 0.58307 0 0.812422
-0.081823 0.017126 0.666000 -0.544911 -0.54491 0.637296
-0.080433 0.017100 0.665000 0.584123 0 0.811665
-0.075820 0.017203 0.669000 -0.878673 -0.43802 0.189927
-0.070829 0.017229 0.670000 -0.540237 -0.540235 0.645205
-0.068378 0.017254 0.671000 -0.539161 -0.53916 0.647002
-0.067200 0.017280 0.672000 -0.391514 -0.784194 0.481411
-0.066705 0.017486 0.680000 -0.62249 -0.78043 0.058603
-0.065217 0.017434 0.678000 0.41869 -0.844815 0.333146
-0.064020 0.017460 0.679000 -0.1888 -0.949548 0.250424
-0.063004 0.017537 0.682000 -0.512898 0.844884 0.152011
-0.057892 0.017563 0.683000 -0.635727 0 0.771914
-0.056674 0.017589 0.684000 -0.193325 0.958211 0.21085
-0.055776 0.017717 0.689000 -0.984249 0 0.17679
-0.054543 0.017743 0.690000 -0.52813 -0.52813 0.664949
-0.052140 0.017820 0.693000 -0.793663 -0.52835 0.301571
-0.046928 0.017846 0.694000 -0.623966 0 0.781452
-0.051849 0.020289 0.789000 6.69484e-07 -0.99967 0.0257058
-0.048657 0.020211 0.786000 0.661031 0.66103 0.355073
-0.047040 0.020160 0.784000 0.424361 0.846552 0.321352
-0.045663 0.020211 0.786000 -0.641586 0.63831 0.425355
-0.041329 0.020289 0.789000 -0.913055 0 0.407837
-0.040230 0.020494 0.797000 -0.990695 0 0.136102
-0.033429 0.020057 0.780000 -0.999083 -0 -0.0428178
-0.177033 0.021847 0.791000 0.586692 0.58669 0.558201
-0.172077 0.021791 0.789000 0.717285 0 0.69678
-0.164980 0.021847 0.791000 -0.665861 0.662474 0.343159
-0.163060 0.021791 0.789000 0.590351 0.590353 0.550426
-0.161967 0.021847 0.791000 -0.665276 0.661898 0.345395
-0.157049 0.021791 0.789000 0.591812 0.591815 0.547278
-0.154954 0.021709 0.786000 0.383716 0.890832 0.24327
-0.115052 0.018035 0.653000 0.511726 0.766436 0.388218
-0.106834 0.018118 0.656000 -0.921151 -0.306125 0.240351
-0.105746 0.018146 0.657000 -0.676506 0 0.736437
-0.103544 0.018422 0.667000 -0.999547 -0 -0.0300815
-0.096209 0.018477 0.669000 -0.663812 -0.66381 0.344544
-0.094650 0.018422 0.667000 0.78887 0 0.61456
-0.089434 0.018394 0.666000 0.579926 0 0.814669
-0.086767 0.018367 0.665000 0.581495 0 0.81355
-0.084360 0.018394 0.666000 -0.659433 0 0.751763
-0.075480 0.018394 0.666000 -0.993639 -2.01043e-06 -0.112612
-0.073271 0.018477 0.669000 -0.954254 0 0.298998
-0.071040 0.018560 0.672000 -0.801416 -0.533479 0.270428
-0.068684 0.018615 0.674000 -0.527589 -0.792559 0.305779
-0.066509 0.018726 0.678000 -0.880663 0.436461 0.184211
-0.064020 0.018753 0.679000 -0.641104 0 0.767454
-0.063004 0.018836 0.682000 -0.947137 0 0.320829
-0.061524 0.018781 0.680000 0.631509 0.631508 0.449881
-0.060406 0.018836 0.682000 -0.872858 0 0.487975
-0.059193 0.018864 0.683000 -0.531686 -0.531686 0.659257
-0.056674 0.018891 0.684000 -0.634517 0 0.772909
-0.055776 0.019030 0.689000 -0.984249 0 0.17679
-0.054543 0.019057 0.690000 -0.629796 0 0.77676
-0.050893 0.019168 0.694000 -0.940446 -0.23409 0.246503
-0.048180 0.019140 0.693000 0.583596 0 0.812044
-0.051520 0.021653 0.784000 -0.997848 -3.45071e-07 -0.0655728
-0.031943 0.021543 0.780000 -0.999162 -0 -0.0409181
-0.177411 0.023206 0.786000 0.268612 0.934233 0.23464
-0.174861 0.023265 0.788000 -0.538016 0.801938 0.259683
-0.166507 0.023147 0.784000 0.591119 0.737961 0.325565
-0.164354 0.023265 0.788000 -0.797325 0.592711 0.11387
-0.162440 0.023206 0.786000 0.495212 0.741875 0.452091
-0.161352 0.023265 0.788000 -0.53671 0.799989 0.268254
-0.156451 0.023206 0.786000 0.496057 0.743138 0.449081
-0.112392 0.019250 0.652000 0.50489 0.504889 0.700123
-0.108833 0.019279 0.653000 -0.681018 0 0.732266
-0.106671 0.019338 0.655000 -0.831831 0.414038 0.369635
-0.105585 0.019368 0.656000 -0.566923 0.565154 0.599333
-0.103544 0.019692 0.667000 -0.999134 -0 -0.0416087
-0.102733 0.019781 0.670000 -0.691747 -0.691745 0.207302
-0.101306 0.019751 0.669000 0.371458 -0.746283 0.552341
-0.098462 0.019692 0.667000 0.786686 0 0.617354
-0.097483 0.019751 0.669000 -0.663812 -0.66381 0.344543
-0.094650 0.019692 0.667000 0.78887 0 0.61456
-0.086897 0.019663 0.666000 0.496749 -0.498236 0.710635
-0.085757 0.019692 0.667000 -0.393748 -0.788683 0.472166
-0.083466 0.019751 0.669000 -0.529663 -0.795677 0.293863
-0.081946 0.019692 0.667000 0.734699 -0.368998 0.569261
-0.080554 0.019663 0.666000 0.583598 0 0.812043
-0.075480 0.019663 0.666000 -0.993639 -0 -0.112612
-0.071251 0.019899 0.674000 -0.994459 -3.3548e-07 -0.105128
-0.066607 0.020047 0.679000 -0.968273 -0.192522 0.159316
-0.063004 0.020135 0.682000 -0.947137 0 0.320829
-0.059280 0.020194 0.684000 -0.794839 -0.396826 0.459086
-0.057892 0.020165 0.683000 0.584651 0 0.811285
-0.056923 0.020283 0.687000 -0.783066 -0.586439 0.207118
-0.055776 0.020342 0.689000 -0.867535 0 0.497375
-0.054543 0.020371 0.690000 -0.629796 0 0.77676
-0.053306 0.020401 0.691000 -0.526718 -0.526719 0.667185
-0.052215 0.020490 0.694000 -0.582691 -0.778044 0.234773
-0.051520 0.023147 0.784000 -0.997848 -0 -0.0655729
-0.049899 0.023088 0.782000 0.618997 0.618996 0.483412
-0.031902 0.022999 0.779000 -0.999162 1.75878e-07 -0.0409181
-0.174571 0.024514 0.780000 0.306083 0.913577 0.26775
-0.167571 0.024577 0.782000 -0.316109 0.938694 0.137583
-0.163937 0.024703 0.786000 -0.888 0.440607 0.131614
-0.156053 0.024640 0.784000 0.593454 0.593457 0.543711
-0.154166 0.024577 0.782000 0.416804 0.831503 0.367255
-0.118602 0.020491 0.652000 0.503534 0.503533 0.702075
-0.106346 0.020523 0.653000 -0.40836 0.81298 0.415097
-0.102733 0.021057 0.670000 -0.988448 -0 -0.151562
-0.101306 0.021026 0.669000 0.573714 0 0.819056
-0.093380 0.020963 0.667000 0.789598 0 0.613624
-0.086897 0.020931 0.666000 0.580975 0 0.813922
-0.085757 0.020963 0.667000 -0.659431 0 0.751765
-0.083466 0.021026 0.669000 -0.890669 0 0.454651
-0.080675 0.020963 0.667000 0.734994 -0.36914 0.568788
-0.078017 0.020931 0.666000 0.584652 0 0.811284
-0.071251 0.021183 0.674000 -0.994459 -0 -0.105128
-0.067600 0.021246 0.676000 -0.655302 -0.655302 0.37571
-0.066607 0.021340 0.679000 -0.949315 0 0.314327
-0.065217 0.021309 0.678000 0.510027 0.510026 0.692637
-0.064020 0.021340 0.679000 -0.641104 0 0.767454
-0.062819 0.021371 0.680000 -0.399655 0.795793 0.454962
-0.060406 0.021434 0.682000 -0.872858 0 0.487975
-0.059193 0.021466 0.683000 -0.543224 0.541605 0.641539
-0.056923 0.021591 0.687000 -0.971859 0 0.235564
-0.055776 0.021654 0.689000 -0.867535 0 0.497375
-0.054543 0.021686 0.690000 -0.629796 0 0.77676
-0.052290 0.021843 0.695000 -0.963534 -0.191596 0.186799
-0.049857 0.021937 0.698000 -0.581979 -0.777086 0.239661
-0.049771 0.024514 0.780000 -0.99797 -1.49995e-07 -0.06368
-0.045256 0.024483 0.779000 0.288002 0.86181 0.417539
-0.042451 0.024577 0.782000 -0.915209 0 0.402979
-0.030418 0.024483 0.779000 -0.818862 0 0.573991
-0.177315 0.025967 0.779000 0.282186 0.844415 0.45534
-0.176057 0.026000 0.780000 -0.395603 0.78819 0.471439
-0.174348 0.025967 0.779000 0.455975 0.455981 0.764309
-0.167143 0.026000 0.780000 -0.394759 0.786507 0.474944
-0.164592 0.026067 0.782000 -0.882708 0 0.469922
-0.163520 0.026133 0.784000 -0.66771 0.664338 0.335884
-0.158634 0.026067 0.782000 0.416683 0.831258 0.367948
-0.157547 0.026133 0.784000 -0.666571 0.663192 0.340382
-0.155655 0.026067 0.782000 0.594179 0.59418 0.542127
-0.119660 0.021700 0.651000 -0.983523 -2.10338e-06 -0.180781
-0.116118 0.021733 0.652000 -0.685562 0 0.728014
-0.110980 0.021700 0.651000 0.506252 0.506253 0.698153
-0.109909 0.021733 0.652000 -0.682313 0 0.73106
-0.105600 0.022400 0.672000 -0.72476 -0.687466 -0.045971
-0.102733 0.022333 0.670000 0.783407 0 0.621509
-0.101306 0.022300 0.669000 0.573714 0 0.819056
-0.093380 0.022233 0.667000 0.789598 0 0.613624
-0.084740 0.022300 0.669000 -0.660292 -0.660294 0.357808
-0.071357 0.022500 0.675000 -0.994459 -2.60511e-06 -0.105128
-0.069968 0.022467 0.674000 0.584123 0 0.811665
-0.068786 0.022500 0.675000 -0.536299 -0.536299 0.651741
-0.066509 0.022600 0.678000 -0.908393 0.301034 0.290173
-0.064020 0.022633 0.679000 -0.641104 0 0.767454
-0.062819 0.022667 0.680000 -0.63988 0 0.768475
-0.060494 0.022767 0.683000 -0.899493 -0.298961 0.318645
-0.059453 0.022867 0.686000 -0.682846 -0.682845 0.259702
-0.058231 0.022900 0.687000 -0.229542 -0.922199 0.311222
-0.057171 0.023000 0.690000 -0.682071 -0.682073 0.263733
-0.054938 0.023167 0.695000 -0.698916 -0.698916 0.151765
-0.053769 0.023233 0.697000 -0.268018 -0.944849 0.188219
-0.051187 0.023267 0.698000 -0.290042 -0.872648 0.392889
-0.049708 0.025967 0.779000 -0.770796 0.383913 0.508413
-0.046620 0.025900 0.777000 0.512336 0.767518 0.385265
-0.043548 0.025833 0.775000 0.425945 0.849689 0.310805
-0.033300 0.025900 0.777000 -0.821069 0 0.570829
-0.030418 0.025967 0.779000 -0.818862 0 0.573991
-0.176860 0.027380 0.777000 0.589982 0.589983 0.551218
-0.175831 0.027450 0.779000 -0.817903 0.407386 0.40629
-0.173900 0.027380 0.777000 0.590716 0.590711 0.54965
-0.167548 0.027310 0.775000 0.416516 0.830882 0.368985
-0.166500 0.027380 0.777000 -0.538912 0.803162 0.253978
-0.164595 0.027310 0.775000 0.354677 0.883269 0.306659
-0.163961 0.027450 0.779000 -0.798085 0.593211 0.105649
-0.162686 0.027486 0.780000 -0.235143 0.934587 0.266935
-0.160124 0.027556 0.782000 -0.667735 0.66431 0.33589
-0.158229 0.027486 0.780000 0.594184 0.594189 0.542111
-0.154166 0.027556 0.782000 -0.877805 0 0.479019
-0.119660 0.022940 0.651000 -0.688202 0 0.725519
-0.116118 0.022975 0.652000 -0.685562 0 0.728014
-0.112220 0.022940 0.651000 0.506251 0.506252 0.698154
-0.110743 0.023962 0.680000 -0.718554 -0.692712 -0.0618875
-0.107834 0.023891 0.678000 0.0732303 -0.99287 0.094059
-0.105600 0.023680 0.672000 0.937133 0 0.348972
-0.101609 0.023645 0.671000 0.370303 -0.743926 0.556283
-0.100181 0.023610 0.670000 0.491099 -0.49257 0.718469
-0.094934 0.023574 0.669000 0.576291 0 0.817244
-0.084867 0.023610 0.670000 -0.542391 -0.542389 0.641581
-0.080917 0.023574 0.669000 0.582022 0 0.813173
-0.071463 0.023821 0.676000 -0.994459 -2.58909e-06 -0.105128
-0.070071 0.023786 0.675000 0.497417 -0.49889 0.709708
-0.068888 0.023821 0.676000 -0.535583 -0.535588 0.652913
-0.066607 0.023927 0.679000 -0.902406 -0.299929 0.309364
-0.064114 0.023962 0.680000 -0.532736 -0.532738 0.657558
-0.063096 0.024068 0.683000 -0.683533 -0.683534 0.256053
-0.061886 0.024103 0.684000 -0.229599 -0.922452 0.31043
-0.060849 0.024209 0.687000 -0.583483 -0.779119 0.229176
-0.059713 0.024279 0.689000 -0.524027 -0.787181 0.325181
-0.058486 0.024314 0.690000 -0.290722 -0.874728 0.387727
-0.057254 0.024350 0.691000 -0.526718 -0.526718 0.667186
-0.056181 0.024455 0.694000 -0.58254 -0.777839 0.235827
-0.055333 0.024667 0.700000 -0.762148 -0.634212 0.130018
-0.051060 0.027380 0.777000 -0.997848 -0 -0.0655729
-0.046500 0.027310 0.775000 0.621989 0.621989 0.475667
-0.041963 0.027239 0.773000 0.623385 0.623385 0.471997
-0.167115 0.028711 0.773000 0.593269 0.593267 0.54412
-0.166071 0.028786 0.775000 -0.670411 0.666969 0.325118
-0.164170 0.028711 0.773000 0.593996 0.594 0.542525
-0.163119 0.028786 0.775000 -0.440953 0.87512 0.199313
-0.162060 0.028860 0.777000 -0.538699 0.802845 0.255428
-0.160167 0.028786 0.775000 0.355077 0.88427 0.303294
-0.159100 0.028860 0.777000 -0.369284 0.914917 0.162961
-0.120343 0.024069 0.648000 -0.983189 -3.90546e-06 -0.182592
-0.119476 0.024143 0.650000 -0.839229 0.417709 0.348159
-0.115940 0.024180 0.651000 -0.573528 0.571735 0.586672
-0.111873 0.025220 0.679000 -0.705882 -0.705883 -0.0588234
-0.110743 0.025257 0.680000 -0.662555 0 0.749013
-0.109287 0.025220 0.679000 0.499144 0.499144 0.708316
-0.107834 0.025183 0.678000 0.567118 0 0.823636
-0.106229 0.025109 0.676000 0.413717 -0.834834 0.363168
-0.104630 0.025034 0.674000 0.607279 -0.610909 0.50794
-0.101760 0.024960 0.672000 0.723284 -0.363249 0.587291
-0.100330 0.024923 0.671000 0.49044 -0.491903 0.719375
-0.095076 0.024886 0.670000 0.492093 -0.493559 0.717108
-0.092386 0.024849 0.669000 0.577324 0 0.816515
-0.084867 0.024886 0.670000 -0.656948 0 0.753936
-0.083715 0.024923 0.671000 -0.541314 -0.541312 0.643397
-0.082314 0.024886 0.670000 0.580971 0 0.813924
-0.078720 0.024960 0.672000 -0.527825 -0.792921 0.304428
-0.077670 0.025034 0.674000 -7.45873e-07 -0.999311 0.0371172
-0.071674 0.025183 0.678000 -0.994459 6.29902e-06 -0.105129
-0.070175 0.025109 0.676000 0.736742 -0.370011 0.565954
-0.066509 0.025183 0.678000 -0.809563 0.40302 0.426829
-0.065410 0.025257 0.680000 -0.797596 -0.398197 0.453079
-0.063189 0.025406 0.684000 -0.944964 -0.235201 0.227428
-0.062157 0.025517 0.687000 -0.68277 -0.682766 0.260105
-0.061026 0.025591 0.689000 -0.650473 -0.650473 0.392136
-0.058486 0.025629 0.690000 -0.63156 0 0.775327
-0.057420 0.025740 0.693000 -0.793665 -0.528352 0.301562
-0.056181 0.025777 0.694000 -0.62804 0 0.778181
-0.055333 0.026000 0.700000 -0.990168 0 0.139882
-0.051407 0.026037 0.701000 -0.5211 -0.521101 0.67595
-0.051060 0.028860 0.777000 -0.998843 -0 -0.0480896
-0.046500 0.028786 0.775000 0.780873 0 0.62469
-0.044908 0.028711 0.773000 0.623035 0.623036 0.472919
-0.041909 0.028674 0.772000 0.486866 0.486865 0.725206
-0.038867 0.028600 0.770000 -6.19684e-07 -0.999311 0.0371172
-0.036073 0.028711 0.773000 -0.787348 0.521504 0.328811
-0.033214 0.028786 0.775000 -0.821794 0 0.569785
-0.030340 0.028860 0.777000 -0.627214 -0.627215 0.461741
-0.174251 0.030145 0.772000 0.283367 0.847898 0.448076
-0.173005 0.030184 0.773000 -0.397294 0.791514 0.464395
-0.171310 0.030145 0.772000 0.283503 0.848308 0.447213
-0.162698 0.030184 0.773000 -0.396318 0.789562 0.468535
-0.161643 0.030262 0.775000 -0.669841 0.666421 0.327409
-0.120343 0.025303 0.648000 -0.983189 -0 -0.182592
-0.115762 0.025381 0.650000 -0.838056 0.417124 0.351667
-0.113167 0.026513 0.679000 -0.718548 -0.692705 -0.0620326
-0.109126 0.026474 0.678000 0.49983 0.499829 0.707348
-0.106229 0.026396 0.676000 0.779777 0 0.626057
-0.104786 0.026357 0.675000 0.487811 -0.48926 0.722955
-0.103347 0.026318 0.674000 0.570647 0 0.821196
-0.100480 0.026240 0.672000 0.723576 -0.363396 0.58684
-0.095218 0.026201 0.671000 0.491429 -0.492895 0.718019
-0.093800 0.026162 0.670000 0.576291 0 0.817244
-0.086014 0.026123 0.669000 0.579926 0 0.814669
-0.084867 0.026162 0.670000 -0.656948 0 0.753936
-0.083840 0.026240 0.672000 -0.807617 -0.403205 0.430327
-0.082437 0.026201 0.671000 0.494743 -0.496219 0.713439
-0.080238 0.026318 0.674000 -0.586005 -0.782503 0.210448
-0.077786 0.026357 0.675000 -0.537729 -0.537729 0.649381
-0.076160 0.026240 0.672000 0.764305 0.510298 0.394252
-0.074367 0.026513 0.679000 -4.68452e-07 -0.999238 0.0390178
-0.071674 0.026474 0.678000 0.581516 0 0.813535
-0.070175 0.026396 0.676000 0.80018 0 0.59976
-0.066509 0.026474 0.678000 -0.877796 0 0.479035
-0.065410 0.026552 0.680000 -0.876396 0 0.48159
-0.064020 0.026513 0.679000 0.511388 0.511388 0.690627
-0.063096 0.026670 0.683000 -0.948925 0.235494 0.209961
-0.062157 0.026826 0.687000 -0.973532 0 0.228551
-0.059800 0.026943 0.690000 -0.89735 -0.298245 0.325288
-0.057586 0.027138 0.695000 -0.914069 -0.364042 0.178747
-0.056505 0.027255 0.698000 -0.581925 -0.777016 0.240018
-0.054000 0.027333 0.700000 -0.862163 0 0.506631
-0.052892 0.027450 0.703000 -0.679365 -0.679367 0.277352
-0.047401 0.027372 0.701000 0.804945 0 0.59335
-0.050929 0.030262 0.775000 -0.998524 0.0243461 -0.0485508
-0.046380 0.030184 0.773000 0.623035 0.623036 0.47292
-0.041909 0.030145 0.772000 0.547934 0 0.836522
-0.038867 0.030067 0.770000 0.786324 0 0.617815
-0.036073 0.030184 0.773000 -0.914565 0 0.404439
-0.034556 0.030145 0.772000 0.488835 0.488833 0.722552
-0.033129 0.030184 0.773000 -0.383732 0.764492 0.517978
-0.030262 0.030262 0.775000 -0.642406 0.639118 0.422899
-0.170867 0.031533 0.770000 0.593457 0.593451 0.543713
-0.161017 0.031615 0.772000 -0.53948 0.803976 0.250168
-0.159753 0.031656 0.773000 -0.396316 0.789559 0.468541
-0.114524 0.026619 0.650000 -0.914991 0 0.403475
-0.111703 0.026537 0.648000 0.624605 0.624608 0.468756
-0.110810 0.026619 0.650000 -0.913054 0 0.407839
-0.114460 0.027807 0.679000 -0.705836 -0.705835 -0.0599441
-0.109126 0.027766 0.678000 0.566613 0 0.823984
-0.106229 0.027684 0.676000 0.779777 0 0.626057
-0.104786 0.027643 0.675000 0.569628 0 0.821903
-0.102063 0.027602 0.674000 0.571155 0 0.820842
-0.099200 0.027520 0.672000 0.784868 0 0.619664
-0.098211 0.027602 0.674000 -0.66133 -0.661328 0.353961
-0.096640 0.027520 0.672000 0.786323 0 0.617816
-0.093940 0.027479 0.671000 0.49143 -0.492894 0.71802
-0.092524 0.027438 0.670000 0.576807 0 0.81688
-0.084993 0.027479 0.671000 -0.540954 -0.540956 0.643999
-0.083840 0.027520 0.672000 -0.655089 0 0.755552
-0.080357 0.027643 0.675000 -0.907728 -0.301673 0.291587
-0.077901 0.027684 0.676000 -0.537013 -0.537015 0.650563
-0.072966 0.027766 0.678000 -0.812743 0.4046 0.419223
-0.070175 0.027684 0.676000 0.80018 0 0.59976
-0.067800 0.027766 0.678000 -0.653447 -0.653446 0.382119
-0.064491 0.028011 0.684000 -0.763287 -0.63513 0.11833
-0.063650 0.028216 0.689000 -0.633536 -0.761355 0.137734
-0.061114 0.028257 0.690000 -0.290284 -0.873404 0.391025
-0.059887 0.028298 0.691000 -0.526366 -0.526364 0.667742
-0.057834 0.028585 0.698000 -0.914167 -0.389531 0.112095
-0.055570 0.028790 0.703000 -0.698107 -0.698107 0.159036
-0.054386 0.028871 0.705000 -0.358354 -0.899731 0.24913
-0.050929 0.031738 0.775000 -0.997848 -0 -0.0655729
-0.047852 0.031656 0.773000 0.623036 0.623035 0.472921
-0.041909 0.031615 0.772000 0.547934 0 0.836522
-0.038867 0.031533 0.770000 0.786323 0 0.617815
-0.033086 0.031615 0.772000 -0.767634 0.382316 0.514367
-0.030184 0.031656 0.773000 -0.383731 0.76449 0.517982
-0.175267 0.033000 0.770000 0.592726 0.592726 0.5453
-0.170423 0.032914 0.768000 0.594177 0.594183 0.542125
-0.162067 0.033000 0.770000 -0.886869 0 0.462022
-0.161017 0.033086 0.772000 -0.885489 0 0.464661
-0.157667 0.033000 0.770000 0.499306 0.747982 0.437283
-0.156606 0.033086 0.772000 -0.814531 0.40567 0.414694
-0.121577 0.027771 0.648000 0.778329 0 0.627857
-0.110298 0.027729 0.647000 0.293934 0.87909 0.375237
-0.113333 0.029143 0.680000 -0.99149 -0.0286326 -0.126994
-0.111873 0.029100 0.679000 0.565084 0 0.825033
-0.109126 0.029057 0.678000 0.566613 0 0.823984
-0.106229 0.028971 0.676000 0.779777 0 0.626057
-0.103500 0.028929 0.675000 0.570135 0 0.821551
-0.100779 0.028886 0.674000 0.571664 0 0.820488
-0.095360 0.028800 0.672000 0.78705 0 0.616889
-0.092662 0.028757 0.671000 0.491426 -0.492895 0.718021
-0.091520 0.028800 0.672000 -0.391651 -0.784468 0.480852
-0.088828 0.028757 0.671000 0.492416 -0.493891 0.716657
-0.086143 0.028714 0.670000 0.579406 0 0.815039
-0.085120 0.028800 0.672000 -0.807618 -0.403204 0.430325
-0.082806 0.028886 0.674000 -0.657441 -0.657442 0.368158
-0.080357 0.028929 0.675000 -0.651399 0 0.758736
-0.077901 0.028971 0.676000 -0.649562 0 0.760309
-0.072966 0.029057 0.678000 -0.881302 0 0.472553
-0.070071 0.028929 0.675000 0.8506 0.284375 0.442278
-0.067900 0.029100 0.679000 -0.946678 -0.235636 0.219719
-0.066083 0.029443 0.687000 -0.661928 -0.745775 0.0753029
-0.063650 0.029529 0.689000 -0.8718 0 0.489863
-0.062429 0.029571 0.690000 -0.527073 -0.527071 0.666626
-0.061380 0.029700 0.693000 -0.681366 -0.681369 0.267353
-0.057834 0.029914 0.698000 -0.983987 0 0.178242
-0.056424 0.029871 0.697000 0.508301 0.5083 0.69517
-0.055333 0.030000 0.700000 -0.692362 0.686468 0.222253
-0.054231 0.030129 0.703000 -0.802438 0.531155 0.27197
-0.053043 0.030214 0.705000 -0.859649 0 0.510884
-0.051553 0.030129 0.703000 0.633384 0.633383 0.44458
-0.050929 0.033214 0.775000 -0.998892 -0 -0.0470642
-0.049261 0.033086 0.772000 0.664721 0.664721 0.341016
-0.047667 0.033000 0.770000 0.514254 0.770377 0.376911
-0.046320 0.033086 0.772000 -0.773102 0.385038 0.504043
-0.044733 0.033000 0.770000 0.514634 0.770945 0.375229
-0.038766 0.032914 0.768000 0.626343 0.626345 0.464098
-0.033000 0.033000 0.770000 -0.644559 0.641245 0.416352
-0.030145 0.033086 0.772000 -0.766766 0.381885 0.515979
-0.173349 0.034377 0.768000 0.593815 0.593818 0.542923
-0.160600 0.034467 0.770000 -0.671377 0.667922 0.321143
-0.153665 0.034556 0.772000 -0.882009 0 0.471233
-0.123190 0.029095 0.650000 -0.98251 -0 -0.186209
-0.121577 0.029006 0.648000 0.778329 0 0.627857
-0.111530 0.028961 0.647000 0.509327 0.509327 0.693666
-0.113667 0.030528 0.682000 -0.99034 -0.0538456 -0.127776
-0.111873 0.030393 0.679000 0.85833 0 0.513097
-0.107834 0.030349 0.678000 0.567118 0 0.823636
-0.104941 0.030259 0.676000 0.780504 0 0.625151
-0.102214 0.030214 0.675000 0.570647 0 0.821196
-0.096928 0.030170 0.674000 0.573202 0 0.819414
-0.088960 0.030080 0.672000 0.727964 -0.365595 0.580008
-0.086657 0.030170 0.674000 -0.430922 -0.864401 0.259071
-0.082929 0.030214 0.675000 -0.538086 -0.538087 0.648788
-0.080476 0.030259 0.676000 -0.537013 -0.537014 0.650563
-0.072966 0.030349 0.678000 -0.881302 0 0.472553
-0.068786 0.030214 0.675000 0.882699 0 0.469939
-0.067800 0.030349 0.678000 -0.909747 0.301484 0.285427
-0.066083 0.030751 0.687000 -0.998883 0 0.0472484
-0.065151 0.030930 0.691000 -0.693864 -0.693863 0.192631
-0.062700 0.031020 0.693000 -0.522742 -0.785243 0.331864
-0.061469 0.031065 0.694000 -0.524959 -0.524956 0.669955
-0.060233 0.031110 0.695000 -0.384418 -0.769946 0.509319
-0.059079 0.031199 0.697000 -0.427656 -0.857768 0.28521
-0.058000 0.031333 0.700000 -0.79184 -0.527136 0.30841
-0.056424 0.031199 0.697000 0.885251 0 0.465113
-0.055175 0.031244 0.698000 -0.398088 0.792769 0.461566
-0.054309 0.031512 0.704000 -0.975694 -0.161459 0.148162
-0.053043 0.031557 0.705000 -0.619926 0 0.78466
-0.050286 0.031512 0.704000 0.491774 -0.493173 0.717593
-0.049133 0.034467 0.770000 -0.99797 -1.47498e-07 -0.06368
-0.047543 0.034377 0.768000 0.624606 0.624606 0.468758
-0.037254 0.034332 0.767000 0.490812 0.490813 0.719866
-0.033000 0.034467 0.770000 -0.913917 0 0.405901
-0.031451 0.034377 0.768000 0.628421 0.628418 0.458453
-0.174584 0.035793 0.767000 0.284458 0.851156 0.441155
-0.171886 0.035840 0.768000 -0.628621 0 0.777712
-0.170201 0.035793 0.767000 0.46208 0.462081 0.756944
-0.163109 0.035840 0.768000 -0.625127 0 0.780523
-0.160600 0.035933 0.770000 -0.886175 0 0.463351
-0.158720 0.035840 0.768000 0.597823 0.59782 0.534059
-0.122811 0.030240 0.648000 -0.98251 4.41957e-06 -0.186209
-0.113995 0.030193 0.647000 0.508984 0.508987 0.694167
-0.113833 0.031873 0.683000 -0.991164 -0.0261168 -0.130045
-0.112368 0.031827 0.682000 0.280762 -0.847195 0.451036
-0.110743 0.031733 0.680000 0.715963 -0.359565 0.598423
-0.109287 0.031687 0.679000 0.56609 0 0.824343
-0.107834 0.031640 0.678000 0.567118 0 0.823636
-0.103653 0.031547 0.676000 0.781229 0 0.624245
-0.099643 0.031500 0.675000 0.571666 0 0.820486
-0.098503 0.031547 0.676000 -0.541672 -0.541673 0.642792
-0.097071 0.031500 0.675000 0.488464 -0.489912 0.722073
-0.087941 0.031453 0.674000 0.36971 -0.742746 0.558249
-0.086786 0.031500 0.675000 -0.538803 -0.5388 0.6476
-0.080476 0.031547 0.676000 -0.650785 0 0.759262
-0.072966 0.031640 0.678000 -0.881302 0 0.472553
-0.067800 0.031640 0.678000 -0.995037 -0 -0.0995037
-0.065057 0.032200 0.690000 -0.995585 -3.67706e-06 -0.0938692
-0.064020 0.032340 0.693000 -0.79427 -0.528749 0.299264
-0.061469 0.032387 0.694000 -0.630386 0 0.776282
-0.058910 0.032433 0.695000 -0.399199 0.794983 0.456773
-0.058000 0.032667 0.700000 -0.983855 0 0.178968
-0.056424 0.032527 0.697000 0.885251 0 0.465113
-0.055650 0.032853 0.704000 -0.754796 -0.646041 0.113639
-0.054386 0.032900 0.705000 -0.518657 -0.518659 0.679697
-0.053193 0.032993 0.707000 -0.643722 -0.643723 0.413815
-0.049362 0.033133 0.710000 -0.4361 -0.875927 0.20632
-0.048942 0.035793 0.767000 -0.997932 0.0484305 -0.0422608
-0.043154 0.035840 0.768000 -0.579925 0 0.81467
-0.037254 0.035793 0.767000 0.551781 0 0.833989
-0.035700 0.035700 0.765000 0.628251 0.62825 0.458914
-0.034332 0.035793 0.767000 -0.825466 0 0.564452
-0.031329 0.035700 0.765000 0.51735 0.775006 0.362926
-0.165818 0.037254 0.767000 -0.889984 0 0.455992
-0.160183 0.037303 0.768000 -0.398271 0.793438 0.460256
-0.158513 0.037254 0.767000 0.464861 0.464864 0.753529
-0.154331 0.037303 0.768000 -0.621654 0 0.783292
-0.122811 0.031474 0.648000 -0.98251 -0 -0.186209
-0.118925 0.031426 0.647000 0.507959 0.507959 0.695669
-0.114000 0.033223 0.684000 -0.991066 -0.0253772 -0.130935
-0.112532 0.033174 0.683000 0.481943 -0.48339 0.730798
-0.109770 0.033126 0.682000 0.280692 -0.846988 0.451468
-0.108152 0.033029 0.680000 0.60334 -0.606921 0.517328
-0.106700 0.032980 0.679000 0.484537 -0.485996 0.727346
-0.103960 0.032931 0.678000 0.367123 -0.737458 0.566901
-0.098503 0.032834 0.676000 0.784133 0 0.620592
-0.095786 0.032786 0.675000 0.573204 0 0.819413
-0.094640 0.032834 0.676000 -0.540233 -0.540238 0.645206
-0.091929 0.032786 0.675000 0.574743 0 0.818334
-0.086914 0.032834 0.676000 -0.538086 -0.538088 0.648787
-0.084589 0.032931 0.678000 -0.526524 -0.790954 0.311713
-0.083051 0.032834 0.676000 0.729125 -0.366183 0.578175
-0.080714 0.032931 0.678000 -0.655303 -0.655301 0.37571
-0.073073 0.032980 0.679000 -0.533108 -0.533106 0.656958
-0.071674 0.032931 0.678000 0.581516 0 0.813535
-0.065057 0.033514 0.690000 -0.995585 -0 -0.0938694
-0.064112 0.033709 0.694000 -0.943395 -0.234825 0.234227
-0.060233 0.033757 0.695000 -0.523552 -0.523552 0.67215
-0.057751 0.033854 0.697000 -0.536474 0.798938 0.271833
-0.054386 0.034243 0.705000 -0.99608 0 0.0884618
-0.053193 0.034340 0.707000 -0.858937 0 0.512081
-0.049362 0.034486 0.710000 -0.934979 0 0.354704
-0.051255 0.036817 0.758000 -0.707092 -0.707092 0.00645365
-0.049943 0.036914 0.760000 -0.0373413 -0.996639 0.0729111
-0.048559 0.036963 0.761000 -0.163198 0.970273 0.178711
-0.047233 0.037060 0.763000 -0.436089 0.865335 0.247027
-0.034243 0.037157 0.765000 -0.646695 0.643346 0.409745
-0.031247 0.037060 0.763000 0.629967 0.629968 0.454183
-0.173673 0.038513 0.763000 0.595458 0.595457 0.539315
-0.171214 0.038614 0.765000 -0.8934 0 0.449263
-0.169313 0.038513 0.763000 0.596549 0.596548 0.536898
-0.166843 0.038614 0.765000 -0.891346 0 0.453324
-0.162047 0.038513 0.763000 0.419393 0.836613 0.352403
-0.159557 0.038614 0.765000 -0.540978 0.80619 0.239586
-0.122811 0.032709 0.648000 0.856413 0 0.516292
-0.118925 0.032658 0.647000 0.576291 0 0.817244
-0.114000 0.034526 0.684000 -0.991225 -0 -0.132189
-0.111231 0.034475 0.683000 0.563583 0 0.826059
-0.108470 0.034425 0.682000 0.365819 -0.734815 0.57116
-0.106857 0.034324 0.680000 0.717133 -0.360146 0.596671
-0.105407 0.034273 0.679000 0.567601 0 0.823304
-0.102669 0.034223 0.678000 0.569143 0 0.822239
-0.092065 0.034122 0.676000 0.724732 -0.363977 0.585051
-0.087171 0.034223 0.678000 -0.656527 -0.656527 0.371411
-0.073073 0.034273 0.679000 -0.645329 0 0.763905
-0.071674 0.034223 0.678000 0.581516 0 0.813535
-0.064112 0.035030 0.694000 -0.99576 -0 -0.0919893
-0.060233 0.035081 0.695000 -0.62921 0 0.777235
-0.057751 0.035182 0.697000 -0.865393 0 0.501094
-0.054540 0.035687 0.707000 -0.978981 -0.193576 0.064221
-0.051920 0.035737 0.708000 -0.516225 -0.516223 0.683393
-0.051255 0.038261 0.758000 -0.997722 -0 -0.067465
-0.049943 0.038362 0.760000 -0.836067 0 0.548627
-0.047110 0.038412 0.761000 -0.388648 0.774258 0.499477
-0.044327 0.038513 0.763000 -0.832055 0 0.554693
-0.042761 0.038412 0.761000 0.627904 0.627906 0.459859
-0.037060 0.038513 0.763000 -0.828396 0 0.560143
-0.032614 0.038412 0.761000 0.429286 0.856316 0.287118
-0.173218 0.039862 0.761000 0.596192 0.596183 0.537699
-0.159541 0.039705 0.758000 0.491993 0.81785 0.298435
-0.157067 0.039810 0.760000 -0.370497 0.917787 0.142825
-0.154374 0.039862 0.761000 -0.236584 0.940151 0.245245
-0.122811 0.033943 0.648000 0.856412 0 0.516292
-0.116460 0.033890 0.647000 0.577326 0 0.816514
-0.115640 0.035933 0.686000 -0.705845 -0.705845 -0.0597081
-0.112697 0.035829 0.684000 0.773987 0 0.633201
-0.109930 0.035776 0.683000 0.56408 0 0.82572
-0.108470 0.035724 0.682000 0.565107 0 0.825018
-0.105562 0.035619 0.680000 0.717425 -0.360292 0.596231
-0.104113 0.035567 0.679000 0.568105 0 0.822956
-0.102669 0.035514 0.678000 0.569143 0 0.822239
-0.095060 0.035567 0.679000 -0.538459 -0.53846 0.648169
-0.091046 0.035514 0.678000 0.367993 -0.739207 0.564052
-0.073073 0.035567 0.679000 -0.645329 0 0.763905
-0.070383 0.035514 0.678000 0.582041 0 0.813159
-0.064112 0.036352 0.694000 -0.99576 -0 -0.0919893
-0.060233 0.036405 0.695000 -0.62921 0 0.777235
-0.057751 0.036510 0.697000 -0.865393 0 0.501094
-0.056505 0.036562 0.698000 -0.520751 -0.520751 0.676488
-0.054540 0.037033 0.707000 -0.997518 0 0.0704071
-0.053269 0.037086 0.708000 -0.516225 -0.516225 0.683391
-0.051255 0.039705 0.758000 -0.997722 -0 -0.067465
-0.045600 0.039810 0.760000 -0.777956 0.387443 0.494644
-0.044210 0.039862 0.761000 -0.388645 0.774256 0.499482
-0.042705 0.039810 0.760000 0.49313 0.493131 0.71669
-0.036963 0.039862 0.761000 -0.387926 0.772824 0.502252
-0.031124 0.039810 0.760000 0.495794 0.495794 0.713006
-0.170640 0.041040 0.756000 0.356673 0.888153 0.289773
-0.169648 0.041149 0.758000 -0.542898 0.808969 0.225458
-0.167760 0.041040 0.756000 0.356815 0.888502 0.288527
-0.162429 0.041149 0.758000 -0.542255 0.808019 0.230358
-0.160560 0.041040 0.756000 0.357163 0.889369 0.285407
-0.158097 0.041149 0.758000 -0.890325 0 0.455325
-0.155619 0.041257 0.760000 -0.888248 0 0.459365
-0.129580 0.035340 0.651000 1.48019e-06 -0.99853 0.0542062
-0.125667 0.035286 0.650000 0.506265 0.506264 0.698135
-0.122811 0.035177 0.648000 0.777603 0 0.628755
-0.118925 0.035123 0.647000 0.508986 0.508984 0.694167
-0.115640 0.037240 0.686000 -0.990749 -0 -0.135705
-0.111883 0.037294 0.687000 -0.291589 -0.877325 0.381153
-0.110091 0.037131 0.684000 0.818937 -0.274576 0.503934
-0.108630 0.037077 0.683000 0.48194 -0.483387 0.730802
-0.105562 0.036914 0.680000 0.86169 0 0.507436
-0.104113 0.036860 0.679000 0.568105 0 0.822956
-0.097503 0.036806 0.678000 0.571178 0 0.820826
-0.096353 0.036860 0.679000 -0.538458 -0.538458 0.648171
-0.077067 0.036914 0.680000 -0.387118 -0.775397 0.498898
-0.075660 0.036860 0.679000 0.491416 -0.492897 0.718027
-0.064112 0.037674 0.694000 -0.99576 -0 -0.0919893
-0.060233 0.037729 0.695000 -0.62921 0 0.777235
-0.057751 0.037837 0.697000 -0.865393 0 0.501094
-0.056505 0.037891 0.698000 -0.625706 0 0.780059
-0.055650 0.038217 0.704000 -0.700357 -0.700355 0.137849
-0.054540 0.038380 0.707000 -0.937911 0 0.346875
-0.053269 0.038434 0.708000 -0.618206 0 0.786016
-0.051390 0.041257 0.760000 -0.997722 -1.97148e-06 -0.0674649
-0.048368 0.041149 0.758000 0.785588 0 0.618751
-0.045600 0.041257 0.760000 -0.833875 0 0.551953
-0.042592 0.041149 0.758000 0.629108 0.629108 0.45656
-0.036914 0.041257 0.760000 -0.774811 0.385877 0.500765
-0.035513 0.041311 0.761000 -0.580971 0 0.813924
-0.034019 0.041257 0.760000 0.49546 0.495459 0.71347
-0.171852 0.042424 0.755000 0.286283 0.856598 0.429282
-0.167094 0.042311 0.753000 0.501372 0.751063 0.42957
-0.161786 0.042424 0.755000 -0.542628 0.808596 0.227436
-0.153360 0.042480 0.756000 -0.236925 0.941478 0.23976
-0.129580 0.036580 0.651000 0.978107 0 0.208104
-0.125667 0.036524 0.650000 0.572197 0 0.820116
-0.122811 0.036411 0.648000 0.777603 0 0.628755
-0.118925 0.036355 0.647000 0.576291 0 0.817244
-0.117874 0.036411 0.648000 -0.556867 -0.55687 0.616275
-0.116460 0.036355 0.647000 0.577326 0 0.816514
-0.112937 0.036411 0.648000 -0.555413 -0.555413 0.618896
-0.116146 0.038715 0.689000 -0.988748 -0.0683385 -0.133069
-0.113191 0.038603 0.687000 0.711882 -0.357492 0.604503
-0.112209 0.038715 0.689000 -0.659398 -0.659398 0.361092
-0.110413 0.038547 0.686000 0.734097 -0.492971 0.466992
-0.108789 0.038434 0.684000 0.714502 -0.358817 0.600614
-0.107329 0.038378 0.683000 0.565086 0 0.825032
-0.105872 0.038322 0.682000 0.365229 -0.73364 0.573045
-0.104267 0.038210 0.680000 0.717422 -0.36029 0.596236
-0.098940 0.038153 0.679000 0.570135 0 0.821551
-0.095200 0.038210 0.680000 -0.537372 -0.537372 0.649972
-0.091180 0.038153 0.679000 0.573202 0 0.819414
-0.088724 0.038210 0.680000 -0.535585 -0.535588 0.652911
-0.082127 0.038153 0.679000 0.576807 0 0.81688
-0.080952 0.038210 0.680000 -0.533448 -0.533451 0.656402
-0.077293 0.038322 0.682000 -0.652511 -0.652513 0.385299
-0.075771 0.038210 0.680000 0.730294 -0.366759 0.576333
-0.073611 0.038434 0.684000 -0.614385 -0.769116 0.176042
-0.064205 0.039052 0.695000 -0.99576 7.88604e-09 -0.0919893
-0.062790 0.038996 0.694000 0.577326 0 0.816514
-0.061557 0.039052 0.695000 -0.5225 -0.5225 0.673785
-0.056505 0.039221 0.698000 -0.940793 0 0.338982
-0.054386 0.039614 0.705000 -0.95828 0.270314 0.0928954
-0.053193 0.039727 0.707000 -0.797902 0.397248 0.453371
-0.051920 0.039783 0.708000 -0.617635 0 0.786465
-0.051390 0.042705 0.760000 -0.999132 -0 -0.0416488
-0.048240 0.042480 0.756000 0.84234 0.422289 0.334866
-0.044036 0.042592 0.758000 -0.651403 0.647956 0.39475
-0.042480 0.042480 0.756000 0.629798 0.629801 0.454648
-0.039548 0.042424 0.755000 0.292271 0.874514 0.387043
-0.036720 0.042480 0.756000 -0.234723 0.932721 0.273745
-0.035467 0.042705 0.760000 -0.931975 0.231461 0.279013
-0.033840 0.042480 0.756000 0.686345 0.686343 0.240547
-0.032486 0.042592 0.758000 -0.648834 0.6454 0.40308
-0.030960 0.042480 0.756000 0.430237 0.858199 0.279982
-0.029598 0.042592 0.758000 -0.648186 0.644756 0.405147
-0.167094 0.043746 0.753000 0.728278 0 0.685281
-0.162575 0.043688 0.752000 0.469556 0.469559 0.747684
-0.161357 0.043746 0.753000 -0.402168 0.801085 0.44331
-0.156846 0.043688 0.752000 0.287365 0.859781 0.422134
-0.132263 0.037878 0.652000 0.690912 0.714746 0.10853
-0.129580 0.037820 0.651000 0.570135 0 0.821551
-0.125667 0.037762 0.650000 0.572197 0 0.820116
-0.124620 0.037820 0.651000 -0.557244 -0.557246 0.615595
-0.122811 0.037646 0.648000 0.856413 0 0.516292
-0.116460 0.037588 0.647000 0.577326 0 0.816514
-0.112937 0.037646 0.648000 -0.686869 0 0.726781
-0.116146 0.040028 0.689000 -0.990549 -0 -0.137158
-0.110413 0.039853 0.686000 0.858094 0 0.513493
-0.107486 0.039737 0.684000 0.714789 -0.35897 0.600181
-0.106028 0.039679 0.683000 0.48194 -0.483383 0.730804
-0.104573 0.039621 0.682000 0.365081 -0.733346 0.573515
-0.101676 0.039505 0.680000 0.78123 0 0.624243
-0.096353 0.039447 0.679000 0.571155 0 0.820842
-0.095200 0.039505 0.680000 -0.655091 0 0.75555
-0.094181 0.039621 0.682000 -0.656221 -0.656221 0.372489
-0.091314 0.039505 0.680000 0.722974 -0.363086 0.587774
-0.081190 0.039621 0.682000 -0.653136 -0.653136 0.383179
-0.079657 0.039505 0.680000 0.793603 0 0.608436
-0.078592 0.039621 0.682000 -0.652512 -0.652512 0.3853
-0.077407 0.039679 0.683000 -0.530976 -0.530976 0.660401
-0.076217 0.039737 0.684000 -0.228417 -0.917706 0.325023
-0.074805 0.039679 0.683000 0.281414 -0.84922 0.446802
-0.073611 0.039737 0.684000 -0.642282 0 0.766469
-0.072626 0.039911 0.687000 -0.682071 -0.682071 0.263738
-0.071525 0.040028 0.689000 -4.83385e-07 -0.998317 0.0579974
-0.066468 0.040144 0.691000 2.14662e-06 -0.998317 0.0579977
-0.065340 0.040260 0.693000 -4.85776e-07 -0.998317 0.0579974
-0.064205 0.040376 0.695000 -0.869663 0 0.493646
-0.062790 0.040318 0.694000 0.577326 0 0.816514
-0.061557 0.040376 0.695000 -0.629798 0 0.776759
-0.059079 0.040492 0.697000 -0.645025 -0.645025 0.409738
-0.056667 0.040667 0.700000 -0.789734 -0.525735 0.316105
-0.055570 0.040841 0.703000 -0.499527 -0.834924 0.23103
-0.054540 0.041073 0.707000 -0.866876 -0.432212 0.248433
-0.053269 0.041131 0.708000 -0.515185 -0.515184 0.684959
-0.052067 0.041248 0.710000 -0.640927 -0.640925 0.422406
-0.050571 0.041131 0.708000 0.800911 0 0.598784
-0.049362 0.041248 0.710000 -0.640266 -0.640262 0.424409
-0.049811 0.044036 0.758000 -0.998454 0.038863 -0.0397394
-0.048240 0.043920 0.756000 0.786324 0 0.617815
-0.046738 0.043862 0.755000 0.494792 0.494793 0.714395
-0.043920 0.043920 0.756000 -0.390225 0.777383 0.493355
-0.042424 0.043862 0.755000 0.495793 0.495793 0.713007
-0.039443 0.043746 0.753000 0.631339 0.631337 0.450361
-0.037857 0.043571 0.750000 0.503176 0.836399 0.217372
-0.033661 0.043688 0.752000 -0.436681 0.866445 0.242036
-0.032271 0.043746 0.753000 -0.193109 0.957852 0.212669
-0.030796 0.043688 0.752000 0.233008 0.928291 0.289797
-0.029403 0.043746 0.753000 -0.193079 0.957702 0.213371
-0.168529 0.045180 0.753000 -0.403115 0.802984 0.438992
-0.166872 0.045120 0.752000 0.46893 0.468928 0.748472
-0.162143 0.045000 0.750000 0.601812 0.601814 0.525016
-0.161143 0.045120 0.752000 -0.825051 0.410903 0.387877
-0.159286 0.045000 0.750000 0.503312 0.753979 0.422129
-0.158278 0.045120 0.752000 -0.824042 0.410405 0.39054
-0.155000 0.045000 0.750000 0.603625 0.60362 0.520846
-0.153981 0.045120 0.752000 -0.891002 0 0.453999
-0.132263 0.039120 0.652000 0.977219 0 0.212233
-0.128340 0.039060 0.651000 0.570645 0 0.821197
-0.126905 0.039000 0.650000 0.506946 0.506948 0.697144
-0.125860 0.039060 0.651000 -0.557247 -0.557247 0.615591
-0.121577 0.038880 0.648000 0.857133 0 0.515096
-0.116460 0.038820 0.647000 0.577326 0 0.816514
-0.112937 0.038880 0.648000 -0.686869 0 0.726781
-0.112048 0.039000 0.650000 -0.665959 -0.665957 0.336156
-0.116483 0.041460 0.691000 -0.989901 -0.0455542 -0.134243
-0.115000 0.041400 0.690000 0.477449 -0.478833 0.736724
-0.110896 0.041340 0.689000 0.278975 -0.841823 0.462069
-0.109266 0.041220 0.687000 0.713048 -0.358073 0.602782
-0.107800 0.041160 0.686000 0.363903 -0.731001 0.577246
-0.106183 0.041040 0.684000 0.715084 -0.359108 0.599747
-0.103426 0.040980 0.683000 0.482264 -0.483703 0.730378
-0.100676 0.040920 0.682000 0.365227 -0.733634 0.573054
-0.097790 0.040800 0.680000 0.783407 0 0.621509
-0.095480 0.040920 0.682000 -0.656221 -0.656221 0.37249
-0.083911 0.040980 0.683000 -0.289975 -0.872443 0.393393
-0.077747 0.041160 0.686000 -0.682845 -0.682845 0.259702
-0.074914 0.041040 0.684000 0.729124 -0.366161 0.578191
-0.073934 0.041220 0.687000 -0.682071 -0.682071 0.263739
-0.072837 0.041340 0.689000 -0.649523 -0.649522 0.395273
-0.067686 0.041400 0.690000 -0.525309 -0.525309 0.669403
-0.066468 0.041460 0.691000 -0.634515 0 0.77291
-0.064112 0.041640 0.694000 -0.906693 0.300485 0.296
-0.061557 0.041700 0.695000 -0.629798 0 0.776759
-0.059079 0.041820 0.697000 -0.866107 0 0.499859
-0.056667 0.042000 0.700000 -0.940409 0 0.340045
-0.055412 0.042060 0.701000 -0.399872 0.796357 0.453781
-0.054540 0.042420 0.707000 -0.989595 0 0.143882
-0.053419 0.042600 0.710000 -0.787071 -0.523974 0.325533
-0.047985 0.045120 0.752000 -0.995349 0.0890295 -0.0368047
-0.037857 0.045000 0.750000 0.793603 0 0.608436
-0.032229 0.045120 0.752000 -0.776236 0.386594 0.497999
-0.030714 0.045000 0.750000 0.634232 0.63423 0.442156
-0.029364 0.045120 0.752000 -0.775092 0.386024 0.500217
-0.161710 0.046305 0.748000 0.602537 0.602538 0.523352
-0.157857 0.046429 0.750000 -0.676779 0.673172 0.298008
-0.153162 0.046305 0.748000 0.422135 0.842029 0.335841
-0.132263 0.040362 0.652000 0.977114 0 0.212716
-0.128340 0.040300 0.651000 0.570645 0 0.821197
-0.125667 0.040238 0.650000 0.507631 0.507629 0.696149
-0.124620 0.040300 0.651000 -0.690822 0 0.723025
-0.121577 0.040114 0.648000 0.857133 0 0.515096
-0.112048 0.040238 0.650000 -0.9137 0 0.406388
-0.116820 0.042900 0.693000 -0.989807 -0.0433048 -0.135673
-0.115167 0.042776 0.691000 0.709258 -0.356161 0.60836
-0.112371 0.042714 0.690000 0.560101 0 0.828425
-0.110896 0.042652 0.689000 0.561091 0 0.827754
-0.109266 0.042529 0.687000 0.775078 0 0.631866
-0.107800 0.042467 0.686000 0.563581 0 0.826061
-0.106183 0.042343 0.684000 0.777605 0 0.628753
-0.100824 0.042281 0.683000 0.482586 -0.48403 0.729949
-0.099377 0.042219 0.682000 0.568635 0 0.82259
-0.094319 0.042281 0.683000 -0.534888 -0.534888 0.654056
-0.091583 0.042219 0.682000 0.571685 0 0.820473
-0.090416 0.042281 0.683000 -0.533819 -0.533819 0.6558
-0.084034 0.042343 0.684000 -0.53167 -0.531672 0.659282
-0.082610 0.042281 0.683000 0.574743 0 0.818334
-0.081429 0.042343 0.684000 -0.530961 -0.530962 0.660424
-0.077747 0.042467 0.686000 -0.880602 0 0.473857
-0.076217 0.042343 0.684000 0.633215 0.633212 0.445063
-0.073934 0.042529 0.687000 -0.950565 0 0.310526
-0.072837 0.042652 0.689000 -0.876749 0 0.480948
-0.071629 0.042714 0.690000 -0.526013 -0.526014 0.668296
-0.067784 0.042776 0.691000 -0.524605 -0.524605 0.670507
-0.064112 0.042962 0.694000 -0.94493 0 0.327272
-0.061557 0.043024 0.695000 -0.629798 0 0.776759
-0.059079 0.043148 0.697000 -0.866107 0 0.499859
-0.057834 0.043210 0.698000 -0.519354 -0.519354 0.678632
-0.056748 0.043395 0.701000 -0.891928 -0.296459 0.341433
-0.055650 0.043581 0.704000 -0.676799 -0.676801 0.289625
-0.054771 0.043952 0.710000 -0.884136 -0.440188 0.156643
-0.052140 0.044014 0.711000 -0.513125 -0.513125 0.688044
-0.047857 0.046429 0.750000 -0.998314 0.0484037 -0.0320316
-0.046305 0.046305 0.748000 0.43014 0.857994 0.280761
-0.043571 0.046429 0.750000 -0.653622 0.650145 0.387414
-0.039181 0.046305 0.748000 0.430632 0.858975 0.276981
-0.035000 0.046429 0.750000 -0.832412 0 0.554157
-0.170714 0.047857 0.750000 -0.899842 0 0.436217
-0.165985 0.047730 0.748000 0.601814 0.601816 0.525012
-0.163571 0.047857 0.750000 -0.896464 0 0.443116
-0.161710 0.047730 0.748000 0.732095 0 0.681203
-0.152957 0.047666 0.747000 0.473979 0.473979 0.742084
-0.132060 0.041540 0.651000 0.977206 0.0116545 0.211973
-0.131021 0.041604 0.652000 -0.693435 0 0.720519
-0.127100 0.041540 0.651000 0.571155 0 0.820842
-0.121952 0.041476 0.650000 0.366196 -0.735745 0.569719
-0.120343 0.041349 0.648000 0.779054 0 0.626957
-0.112048 0.041476 0.650000 -0.9137 0 0.406388
-0.116989 0.044284 0.694000 -0.990247 -0.021109 -0.137716
-0.115500 0.044220 0.693000 0.361575 -0.726311 0.584582
-0.112371 0.044029 0.690000 0.856413 0 0.516291
-0.109266 0.043837 0.687000 0.858574 0 0.512689
-0.106183 0.043646 0.684000 0.860728 0 0.509065
-0.105187 0.043773 0.686000 -0.657135 -0.657135 0.369252
-0.103577 0.043646 0.684000 0.779053 0 0.626958
-0.100824 0.043582 0.683000 0.567603 0 0.823302
-0.096779 0.043518 0.682000 0.569649 0 0.821888
-0.095620 0.043582 0.683000 -0.534888 -0.534886 0.654058
-0.084034 0.043646 0.684000 -0.647123 0 0.762386
-0.082610 0.043582 0.683000 0.574743 0 0.818334
-0.081429 0.043646 0.684000 -0.645909 0 0.763415
-0.077747 0.043773 0.686000 -0.880602 0 0.473857
-0.074150 0.043965 0.689000 -0.795464 -0.529546 0.294649
-0.071629 0.044029 0.690000 -0.637488 0 0.770461
-0.069100 0.044092 0.691000 -0.524606 -0.524606 0.670505
-0.062790 0.044284 0.694000 -0.944372 0 0.32888
-0.061734 0.044475 0.697000 -0.790858 -0.526483 0.312025
-0.060493 0.044539 0.698000 -0.287413 -0.864739 0.41185
-0.059333 0.044667 0.700000 -0.518948 -0.779537 0.350735
-0.056910 0.044858 0.703000 -0.788602 -0.524988 0.320148
-0.055729 0.044986 0.705000 -0.781679 -0.390283 0.486473
-0.054849 0.045369 0.711000 -0.974921 -0.161349 0.153282
-0.047666 0.047666 0.747000 -0.996411 0.0787154 -0.0311193
-0.044700 0.047538 0.745000 0.519814 0.778697 0.351317
-0.043397 0.047666 0.747000 -0.532267 0.793094 0.296132
-0.040443 0.047538 0.745000 0.363493 0.905106 0.22058
-0.034860 0.047666 0.747000 -0.531303 0.791653 0.301666
-0.170259 0.049154 0.748000 -0.404876 0.806473 0.430903
-0.169286 0.049286 0.750000 -0.89917 0 0.4376
-0.167410 0.049154 0.748000 0.601812 0.601813 0.525017
-0.160071 0.049089 0.747000 0.472711 0.472714 0.743697
-0.157436 0.049154 0.748000 -0.636322 0 0.771424
-0.155803 0.049089 0.747000 0.473664 0.473662 0.742487
-0.151737 0.049154 0.748000 -0.00895785 -0.997033 0.0764478
-0.131021 0.042846 0.652000 0.977499 0 0.210938
-0.127100 0.042780 0.651000 0.571155 0 0.820842
-0.124811 0.042846 0.652000 -0.555412 -0.555415 0.618896
-0.123380 0.042780 0.651000 0.572691 0 0.819772
-0.121952 0.042714 0.650000 0.573731 0 0.819044
-0.120343 0.042583 0.648000 0.779054 0 0.626957
-0.118481 0.045671 0.695000 -0.722117 -0.689263 -0.0588456
-0.115667 0.045606 0.694000 0.475217 -0.476582 0.739621
-0.114180 0.045540 0.693000 0.558123 0 0.829758
-0.112534 0.045409 0.691000 0.709841 -0.356451 0.607511
-0.111057 0.045343 0.690000 0.560595 0 0.82809
-0.109584 0.045277 0.689000 0.362442 -0.728071 0.581849
-0.107957 0.045146 0.687000 0.775802 0 0.630976
-0.106493 0.045080 0.686000 0.363171 -0.729531 0.579561
-0.102274 0.044949 0.684000 0.779777 0 0.626057
-0.098222 0.044883 0.683000 0.568614 0 0.822604
-0.095760 0.044949 0.684000 -0.534159 -0.534162 0.655244
-0.094319 0.044883 0.683000 0.570137 0 0.82155
-0.093154 0.044949 0.684000 -0.533449 -0.533449 0.656403
-0.091717 0.044883 0.683000 0.571155 0 0.820842
-0.090549 0.044949 0.684000 -0.532738 -0.532738 0.657557
-0.076440 0.045080 0.686000 -0.879902 0 0.475156
-0.075243 0.045146 0.687000 -0.527424 -0.527424 0.66607
-0.074150 0.045277 0.689000 -0.877452 0 0.479664
-0.072943 0.045343 0.690000 -0.52566 -0.52566 0.668852
-0.069100 0.045409 0.691000 -0.635702 0 0.771935
-0.067980 0.045540 0.693000 -0.646642 -0.646644 0.404604
-0.066468 0.045409 0.691000 0.797628 0 0.60315
-0.065340 0.045540 0.693000 -0.645997 -0.645998 0.406662
-0.064112 0.045606 0.694000 -0.287667 -0.865519 0.41003
-0.062881 0.045671 0.695000 -0.521102 -0.521102 0.675948
-0.061823 0.045869 0.698000 -0.894159 -0.297194 0.334897
-0.059333 0.046000 0.700000 -0.865028 0 0.501724
-0.058083 0.046066 0.701000 -0.517614 -0.517613 0.681287
-0.056910 0.046197 0.703000 -0.862529 0 0.506008
-0.056124 0.046657 0.710000 -0.807762 -0.575339 0.128476
-0.054849 0.046723 0.711000 -0.617088 0 0.786894
-0.053645 0.046854 0.713000 -0.639435 -0.639434 0.426904
-0.052140 0.046723 0.711000 0.799082 0 0.601221
-0.050714 0.046657 0.710000 0.509686 0.509684 0.69314
-0.048957 0.048957 0.745000 -0.717522 -0.696039 0.0263129
-0.044580 0.048826 0.743000 0.633047 0.633047 0.445536
-0.041862 0.048957 0.745000 -0.65474 0.651213 0.383714
