-0.096907 -0.040328 0.632000 -0.690167 0 0.723651
-0.094649 -0.040391 0.633000 -0.688176 0 0.725544
-0.091175 -0.040455 0.634000 -0.685562 0 0.728014
-0.088620 -0.040391 0.633000 0.5959 0 0.803059
-0.085137 -0.040455 0.634000 -0.682313 0 0.73106
-0.079224 -0.040519 0.635000 -0.678435 0 0.73466
-0.075476 -0.040455 0.634000 0.601371 0 0.79897
-0.074386 -0.040519 0.635000 -0.675864 0 0.737027
-0.067023 -0.040455 0.634000 0.60524 0 0.796043
-0.065711 -0.040391 0.633000 0.606351 0 0.795197
-0.060696 -0.040264 0.631000 0.643394 -0.647471 0.408444
-0.059306 -0.040136 0.629000 -1.15257e-07 -0.99797 -0.06368
-0.054427 -0.040072 0.628000 1.49585e-06 -0.99797 -0.0636799
-0.112417 -0.038257 0.618000 -0.983855 -0 -0.178968
-0.111420 -0.038319 0.619000 -0.708137 0 0.706075
-0.110419 -0.038381 0.620000 -0.400794 0.797719 0.450564
-0.109767 -0.038567 0.623000 -0.977163 0 0.212492
-0.107566 -0.038629 0.624000 -0.70207 0 0.712108
-0.106548 -0.038690 0.625000 -0.700732 0 0.713424
-0.104333 -0.038752 0.626000 -0.698733 0 0.715382
-0.102274 -0.038876 0.628000 -0.841805 -0.420244 0.338761
-0.100041 -0.038938 0.629000 -0.694092 0 0.719887
-0.099157 -0.039062 0.631000 -0.91467 0 0.404202
-0.096907 -0.039124 0.632000 -0.690167 0 0.723651
-0.095854 -0.039186 0.633000 -0.579181 -0.579179 0.573673
-0.091175 -0.039248 0.634000 -0.685562 0 0.728014
-0.088620 -0.039186 0.633000 0.5959 0 0.803059
-0.085137 -0.039248 0.634000 -0.682313 0 0.73106
-0.079224 -0.039310 0.635000 -0.678435 0 0.73466
-0.068230 -0.039248 0.634000 0.50625 0.50625 0.698156
-0.066917 -0.039186 0.633000 0.506936 0.506932 0.697163
-0.060696 -0.039062 0.631000 0.819602 0 0.572934
-0.058108 -0.038938 0.629000 0.821794 0 0.569784
-0.054427 -0.038876 0.628000 0.61422 0 0.789135
-0.112235 -0.037020 0.617000 -0.983855 -3.30181e-06 -0.178968
-0.111240 -0.037080 0.618000 -0.567334 0.565541 0.598578
-0.110419 -0.037200 0.620000 -0.925101 0 0.379721
-0.109767 -0.037380 0.623000 -0.977163 0 0.212492
-0.107566 -0.037440 0.624000 -0.70207 0 0.712108
-0.105357 -0.037500 0.625000 -0.700067 0 0.714077
-0.104333 -0.037560 0.626000 -0.698733 0 0.715382
-0.102274 -0.037680 0.628000 -0.917558 0 0.397602
-0.100041 -0.037740 0.629000 -0.694092 0 0.719887
-0.099157 -0.037860 0.631000 -0.91467 0 0.404202
-0.096907 -0.037920 0.632000 -0.690167 0 0.723651
-0.095854 -0.037980 0.633000 -0.688831 0 0.724922
-0.092383 -0.038040 0.634000 -0.577345 -0.577348 0.577358
-0.079224 -0.038100 0.635000 -0.678435 0 0.73466
-0.069438 -0.038040 0.634000 0.506252 0.506252 0.698153
-0.066917 -0.037980 0.633000 0.605796 0 0.79562
-0.060792 -0.037920 0.632000 0.530869 -0.532581 0.659193
-0.059494 -0.037860 0.631000 0.610288 0 0.79218
-0.056910 -0.037740 0.629000 0.822528 0 0.568725
-0.054427 -0.037680 0.628000 0.61422 0 0.789135
-0.112235 -0.035845 0.617000 -0.979057 0 0.203586
-0.110419 -0.036019 0.620000 -0.97793 0 0.208934
-0.109767 -0.036193 0.623000 -0.977163 0 0.212492
-0.107566 -0.036251 0.624000 -0.70207 0 0.712108
-0.106548 -0.036310 0.625000 -0.585042 -0.585044 0.561649
-0.104333 -0.036368 0.626000 -0.698733 0 0.715382
-0.102274 -0.036484 0.628000 -0.917558 0 0.397602
-0.100041 -0.036542 0.629000 -0.694092 0 0.719887
-0.099157 -0.036658 0.631000 -0.91467 0 0.404202
-0.096907 -0.036716 0.632000 -0.690167 0 0.723651
-0.095854 -0.036774 0.633000 -0.688831 0 0.724922
-0.093590 -0.036832 0.634000 -0.577347 -0.577347 0.577356
-0.079224 -0.036890 0.635000 -0.678435 0 0.73466
-0.070646 -0.036832 0.634000 0.50625 0.506251 0.698155
-0.066917 -0.036774 0.633000 0.605796 0 0.79562
-0.060792 -0.036716 0.632000 0.609145 0 0.793059
-0.059494 -0.036658 0.631000 0.610288 0 0.79218
-0.056910 -0.036542 0.629000 0.822528 0 0.568725
-0.055623 -0.036484 0.628000 0.512422 0.512422 0.689091
-0.053061 -0.036368 0.626000 0.626348 0.626348 0.464087
-0.051703 -0.036251 0.624000 2.36252e-06 -0.998317 -0.0579973
-0.113043 -0.034557 0.615000 -0.934535 -0.310484 0.173909
-0.112053 -0.034613 0.616000 -0.569187 0.567339 0.595107
-0.111060 -0.034670 0.617000 -0.709463 0 0.704743
-0.110241 -0.034782 0.619000 -0.833637 0.414788 0.364693
-0.109767 -0.035007 0.623000 -0.993044 0 0.117747
-0.108754 -0.035063 0.624000 -0.585774 -0.585776 0.56012
-0.106548 -0.035119 0.625000 -0.700732 0 0.713424
-0.104333 -0.035175 0.626000 -0.698733 0 0.715382
-0.103306 -0.035231 0.627000 -0.582847 -0.582843 0.566202
-0.102274 -0.035288 0.628000 -0.696103 0 0.717942
-0.101239 -0.035344 0.629000 -0.581381 -0.581377 0.569207
-0.099157 -0.035456 0.631000 -0.91467 0 0.404202
-0.096907 -0.035512 0.632000 -0.690167 0 0.723651
-0.095854 -0.035569 0.633000 -0.688831 0 0.724922
-0.093590 -0.035625 0.634000 -0.686869 0 0.726781
-0.079224 -0.035681 0.635000 -0.678435 0 0.73466
-0.069438 -0.035625 0.634000 0.604131 0 0.796885
-0.065711 -0.035569 0.633000 0.606351 0 0.795197
-0.061996 -0.035512 0.632000 0.50967 0.50967 0.693162
-0.059494 -0.035456 0.631000 0.610288 0 0.79218
-0.058108 -0.035344 0.629000 0.62478 0.624782 0.468293
-0.055623 -0.035288 0.628000 0.613653 0 0.789575
-0.054340 -0.035231 0.627000 0.513469 0.513469 0.687531
-0.053061 -0.035175 0.626000 0.615924 0 0.787805
-0.051786 -0.035119 0.625000 0.535126 -0.536844 0.652257
-0.050433 -0.035007 0.623000 1.10681e-06 -0.998425 -0.0561019
-0.113843 -0.033277 0.613000 -0.84959 -0.424103 0.313582
-0.113043 -0.033386 0.615000 -0.928479 0 0.371385
-0.111060 -0.033494 0.617000 -0.926638 0 0.375955
-0.110241 -0.033603 0.619000 -0.92541 0 0.378968
-0.109767 -0.033820 0.623000 -0.993044 0 0.117747
-0.108754 -0.033874 0.624000 -0.702737 0 0.71145
-0.107738 -0.033929 0.625000 -0.584677 -0.584675 0.562412
-0.105526 -0.033983 0.626000 -0.583578 -0.583578 0.56469
-0.104500 -0.034037 0.627000 -0.582845 -0.582847 0.5662
-0.102274 -0.034091 0.628000 -0.696103 0 0.717942
-0.101239 -0.034146 0.629000 -0.694756 0 0.719246
-0.099157 -0.034254 0.631000 -0.91467 0 0.404202
-0.098110 -0.034309 0.632000 -0.578828 -0.578828 0.574384
-0.095854 -0.034363 0.633000 -0.688831 0 0.724922
-0.092383 -0.034417 0.634000 -0.686213 0 0.727401
-0.079224 -0.034471 0.635000 -0.678435 0 0.73466
-0.069438 -0.034417 0.634000 0.604131 0 0.796885
-0.065711 -0.034363 0.633000 0.606351 0 0.795197
-0.061996 -0.034309 0.632000 0.608583 0 0.79349
-0.059494 -0.034254 0.631000 0.610288 0 0.79218
-0.058108 -0.034146 0.629000 0.821794 0 0.569784
-0.055623 -0.034091 0.628000 0.613653 0 0.789575
-0.054340 -0.034037 0.627000 0.614807 0 0.788677
-0.053061 -0.033983 0.626000 0.615924 0 0.787805
-0.051703 -0.033874 0.624000 0.75602 0.378616 0.533932
-0.050433 -0.033820 0.623000 0.618778 0 0.785566
-0.049010 -0.033657 0.620000 1.97497e-07 -0.99853 -0.0542059
-0.115230 -0.031848 0.608000 -1.46863e-06 -0.998631 -0.0523095
-0.114635 -0.032005 0.611000 -0.980879 0 0.194616
-0.113843 -0.032110 0.613000 -0.929691 0 0.368341
-0.113043 -0.032214 0.615000 -0.928479 0 0.371385
-0.111060 -0.032319 0.617000 -0.926638 0 0.375955
-0.110241 -0.032424 0.619000 -0.92541 0 0.378968
-0.109590 -0.032581 0.622000 -0.926666 0.306917 0.217005
-0.108754 -0.032686 0.624000 -0.92261 0 0.385734
-0.107738 -0.032738 0.625000 -0.701401 0 0.712767
-0.106718 -0.032790 0.626000 -0.583578 -0.583578 0.564688
-0.104500 -0.032843 0.627000 -0.69807 0 0.716029
-0.103470 -0.032895 0.628000 -0.581759 -0.581761 0.568429
-0.102437 -0.032948 0.629000 -0.581011 -0.581013 0.569957
-0.099157 -0.033052 0.631000 -0.91467 0 0.404202
-0.098110 -0.033105 0.632000 -0.690824 0 0.723023
-0.095854 -0.033157 0.633000 -0.688831 0 0.724922
-0.092383 -0.033210 0.634000 -0.686213 0 0.727401
-0.088900 -0.033262 0.635000 -0.574414 -0.574416 0.583177
-0.080307 -0.033210 0.634000 0.599172 0 0.80062
-0.079224 -0.033262 0.635000 -0.678435 0 0.73466
-0.069438 -0.033210 0.634000 0.604131 0 0.796885
-0.064506 -0.033157 0.633000 0.606909 0 0.794771
-0.061996 -0.033105 0.632000 0.608583 0 0.79349
-0.059494 -0.033052 0.631000 0.610288 0 0.79218
-0.058108 -0.032948 0.629000 0.821794 0 0.569784
-0.055623 -0.032895 0.628000 0.613653 0 0.789575
-0.054340 -0.032843 0.627000 0.614807 0 0.788677
-0.052976 -0.032738 0.625000 0.75544 0.378322 0.53496
-0.051703 -0.032686 0.624000 0.617636 0 0.786464
-0.050352 -0.032581 0.622000 0.757474 0.379358 0.531339
-0.049010 -0.032476 0.620000 0.830218 0 0.557439
-0.047751 -0.032424 0.619000 -2.28115e-06 -0.998631 -0.0523094
-0.046497 -0.032371 0.618000 1.3811e-06 -0.998631 -0.0523091
-0.111220 -0.029327 0.581000 -0.738373 0 0.674392
-0.115420 -0.030740 0.609000 -0.988123 -0.0337205 -0.14992
-0.114635 -0.030841 0.611000 -0.930901 0 0.365272
-0.112675 -0.030942 0.613000 -0.676046 0.671662 0.303037
-0.111871 -0.031043 0.615000 -0.927869 0 0.372907
-0.111420 -0.031245 0.619000 -0.892261 -0.444688 0.0782509
-0.110419 -0.031295 0.620000 -0.586874 -0.586872 0.557817
-0.109590 -0.031396 0.622000 -0.923854 0 0.382745
-0.108754 -0.031497 0.624000 -0.92261 0 0.385734
-0.107738 -0.031548 0.625000 -0.701401 0 0.712767
-0.106718 -0.031598 0.626000 -0.700067 0 0.714077
-0.105694 -0.031649 0.627000 -0.582479 -0.582477 0.566955
-0.103470 -0.031699 0.628000 -0.696767 0 0.717298
-0.102437 -0.031750 0.629000 -0.695413 0 0.71861
-0.099157 -0.031850 0.631000 -0.91467 0 0.404202
-0.098110 -0.031901 0.632000 -0.690824 0 0.723023
-0.095854 -0.031951 0.633000 -0.688831 0 0.724922
-0.093590 -0.032002 0.634000 -0.575883 -0.575881 0.580276
-0.090110 -0.032052 0.635000 -0.574415 -0.574413 0.583178
-0.089040 -0.032103 0.636000 -0.573683 -0.573681 0.584617
-0.086481 -0.032052 0.635000 0.595904 0 0.803056
-0.068230 -0.032002 0.634000 0.604682 0 0.796467
-0.064506 -0.031951 0.633000 0.606909 0 0.794771
-0.060792 -0.031901 0.632000 0.609145 0 0.793059
-0.058292 -0.031850 0.631000 0.393288 -0.790285 0.469866
-0.056910 -0.031750 0.629000 0.822528 0 0.568725
-0.055623 -0.031699 0.628000 0.613653 0 0.789575
-0.054340 -0.031649 0.627000 0.614807 0 0.788677
-0.052976 -0.031548 0.625000 0.826191 0 0.56339
-0.051537 -0.031396 0.622000 0.764844 0.510717 0.392659
-0.050190 -0.031295 0.620000 0.629453 0.629453 0.455608
-0.047751 -0.031245 0.619000 0.622229 0 0.782835
-0.045320 -0.031194 0.618000 -7.33001e-07 -0.998729 -0.0504121
-0.114540 -0.028220 0.581000 3.27216e-07 -0.998823 -0.0485142
-0.112133 -0.028171 0.580000 0.609706 0 0.792628
-0.110113 -0.028220 0.581000 -0.0373474 0.995887 0.0825515
-0.114260 -0.029580 0.609000 -0.987451 0.067062 -0.14298
-0.113471 -0.029677 0.611000 -0.930295 0 0.366813
-0.111690 -0.029823 0.614000 -0.928876 0.307608 0.206317
-0.111420 -0.030066 0.619000 -0.99855 0 0.0538254
-0.110775 -0.030211 0.622000 -0.82301 -0.547787 0.150281
-0.109943 -0.030309 0.624000 -0.684367 -0.684361 0.251578
-0.108929 -0.030357 0.625000 -0.583943 -0.583944 0.563933
-0.107910 -0.030406 0.626000 -0.583212 -0.583212 0.565444
-0.106889 -0.030454 0.627000 -0.582476 -0.582479 0.566956
-0.103470 -0.030503 0.628000 -0.696767 0 0.717298
-0.102437 -0.030551 0.629000 -0.695413 0 0.71861
-0.099157 -0.030649 0.631000 -0.91467 0 0.404202
-0.098110 -0.030697 0.632000 -0.690824 0 0.723023
-0.095854 -0.030746 0.633000 -0.688831 0 0.724922
-0.093590 -0.030794 0.634000 -0.686869 0 0.726781
-0.091319 -0.030843 0.635000 -0.574415 -0.574415 0.583176
-0.089040 -0.030891 0.636000 -0.682962 0 0.730454
-0.080433 -0.030843 0.635000 0.598626 0 0.801029
-0.068230 -0.030794 0.634000 0.604682 0 0.796467
-0.063300 -0.030746 0.633000 0.607468 0 0.794344
-0.060792 -0.030697 0.632000 0.609145 0 0.793059
-0.058292 -0.030649 0.631000 0.61085 0 0.791746
-0.056910 -0.030551 0.629000 0.822528 0 0.568725
-0.055623 -0.030503 0.628000 0.613653 0 0.789575
-0.054253 -0.030406 0.626000 0.755158 0.378171 0.535465
-0.052891 -0.030309 0.624000 0.756312 0.37876 0.533415
-0.051537 -0.030211 0.622000 0.828029 0 0.560685
-0.050190 -0.030114 0.620000 0.829487 0 0.558527
-0.047751 -0.030066 0.619000 0.622229 0 0.782835
-0.045320 -0.030017 0.618000 0.623986 0 0.781435
-0.115846 -0.027160 0.582000 0.797986 0 0.602675
-0.113433 -0.027113 0.581000 0.608606 0 0.793472
-0.112133 -0.027067 0.580000 0.609706 0 0.792628
-0.110837 -0.027020 0.579000 0.512765 0.512766 0.68858
-0.109545 -0.026973 0.578000 0.288813 0.863457 0.413556
-0.112308 -0.028513 0.611000 -0.988871 -0 -0.148773
-0.111600 -0.028933 0.620000 -0.992514 -0.108848 -0.0553873
-0.111131 -0.029120 0.624000 -0.891856 -0.444501 0.0837303
-0.110119 -0.029167 0.625000 -0.583944 -0.583942 0.563933
-0.107910 -0.029213 0.626000 -0.700735 0 0.713422
-0.106889 -0.029260 0.627000 -0.699397 0 0.714733
-0.104667 -0.029307 0.628000 -0.581026 -0.581025 0.569928
-0.101239 -0.029353 0.629000 -0.694756 0 0.719246
-0.099157 -0.029447 0.631000 -0.91467 0 0.404202
-0.096907 -0.029493 0.632000 -0.690167 0 0.723651
-0.095854 -0.029540 0.633000 -0.688832 0 0.724922
-0.093590 -0.029587 0.634000 -0.686869 0 0.726781
-0.091319 -0.029633 0.635000 -0.684913 0 0.728625
-0.090251 -0.029680 0.636000 -0.573315 -0.573318 0.585334
-0.084459 -0.029773 0.638000 -0.676971 -0.676967 0.288835
-0.081771 -0.029680 0.636000 0.805311 0 0.592853
-0.080433 -0.029633 0.635000 0.598626 0 0.801029
-0.068230 -0.029587 0.634000 0.604682 0 0.796467
-0.063300 -0.029540 0.633000 0.607468 0 0.794344
-0.060792 -0.029493 0.632000 0.609145 0 0.793059
-0.059494 -0.029447 0.631000 0.512433 0.512433 0.689075
-0.058108 -0.029353 0.629000 0.626518 0.626518 0.463628
-0.056819 -0.029307 0.628000 0.514148 0.514148 0.686516
-0.054253 -0.029213 0.626000 0.825099 0 0.564989
-0.052891 -0.029120 0.624000 0.826557 0 0.562853
-0.051537 -0.029027 0.622000 0.828029 0 0.560685
-0.050190 -0.028933 0.620000 0.829487 0 0.558527
-0.047751 -0.028887 0.619000 0.622229 0 0.782835
-0.044143 -0.028840 0.618000 0.624567 0 0.780971
-0.042827 -0.028747 0.616000 -4.86125e-07 -0.998913 -0.046616
-0.115846 -0.026051 0.582000 0.797986 0 0.602675
-0.113433 -0.026007 0.581000 0.608606 0 0.793472
-0.111940 -0.025917 0.579000 0.736736 0.369004 0.566618
-0.110646 -0.025872 0.578000 0.513455 0.513459 0.687549
-0.106786 -0.025738 0.575000 0.651363 0.651367 0.389162
-0.109980 -0.027350 0.611000 -0.965325 0.22381 -0.134372
-0.111131 -0.027931 0.624000 -0.9961 -0 -0.0882259
-0.108929 -0.027976 0.625000 -0.702067 0 0.712111
-0.107910 -0.028021 0.626000 -0.700735 0 0.713422
-0.106889 -0.028066 0.627000 -0.699397 0 0.714733
-0.104667 -0.028110 0.628000 -0.697429 0 0.716654
-0.100041 -0.028155 0.629000 -0.694092 0 0.719887
-0.099157 -0.028245 0.631000 -0.91467 0 0.404202
-0.096907 -0.028290 0.632000 -0.690167 0 0.723651
-0.095854 -0.028334 0.633000 -0.688831 0 0.724922
-0.093590 -0.028379 0.634000 -0.686869 0 0.726781
-0.092529 -0.028424 0.635000 -0.574045 -0.574049 0.583901
-0.091463 -0.028469 0.636000 -0.573316 -0.573314 0.585338
-0.089320 -0.028558 0.638000 -0.67772 -0.677724 0.285282
-0.080560 -0.028469 0.636000 0.753994 -0.378765 0.536685
-0.079224 -0.028424 0.635000 0.599172 0 0.80062
-0.069438 -0.028379 0.634000 0.508987 0.508984 0.694167
-0.063300 -0.028334 0.633000 0.607468 0 0.794344
-0.060792 -0.028290 0.632000 0.609145 0 0.793059
-0.059494 -0.028245 0.631000 0.610288 0 0.79218
-0.058108 -0.028155 0.629000 0.821794 0 0.569784
-0.056819 -0.028110 0.628000 0.613088 0 0.790015
-0.054253 -0.028021 0.626000 0.825099 0 0.564989
-0.052891 -0.027931 0.624000 0.826557 0 0.562853
-0.051537 -0.027842 0.622000 0.828029 0 0.560685
-0.050190 -0.027752 0.620000 0.829487 0 0.558527
-0.046572 -0.027708 0.619000 0.622808 0 0.782375
-0.044143 -0.027663 0.618000 0.624567 0 0.780971
-0.042827 -0.027573 0.616000 0.835336 0 0.549739
-0.119786 -0.025071 0.585000 -0.979673 -4.43626e-06 -0.2006
-0.117356 -0.025029 0.584000 0.60524 0 0.796043
-0.115846 -0.024943 0.582000 0.797986 0 0.602675
-0.113433 -0.024900 0.581000 0.608606 0 0.793472
-0.111940 -0.024814 0.579000 0.801278 0 0.598293
-0.110646 -0.024771 0.578000 0.611393 0 0.791327
-0.108069 -0.024686 0.576000 0.619 0.618999 0.483404
-0.106786 -0.024643 0.575000 0.614789 0 0.788692
-0.105139 -0.024514 0.572000 0.652303 0.652306 0.386001
-0.103868 -0.024471 0.571000 0.229953 0.914977 0.331571
-0.102600 -0.024429 0.570000 0.0260138 0.996791 0.0756967
-0.109943 -0.026743 0.624000 -0.988037 -0 -0.154218
-0.107910 -0.026829 0.626000 -0.921353 0 0.388727
-0.106889 -0.026871 0.627000 -0.699397 0 0.714733
-0.104667 -0.026914 0.628000 -0.697429 0 0.716654
-0.100041 -0.026957 0.629000 -0.694092 0 0.719887
-0.097955 -0.027043 0.631000 -0.914024 0 0.40566
-0.096907 -0.027086 0.632000 -0.690167 0 0.723651
-0.095854 -0.027129 0.633000 -0.688831 0 0.724922
-0.094798 -0.027171 0.634000 -0.574782 -0.57478 0.582455
-0.093738 -0.027214 0.635000 -0.574049 -0.574046 0.583899
-0.092674 -0.027257 0.636000 -0.573316 -0.573317 0.585335
-0.089320 -0.027343 0.638000 -0.906517 0 0.42217
-0.080560 -0.027257 0.636000 0.806043 0 0.591858
-0.076805 -0.027214 0.635000 0.600268 0 0.799799
-0.071853 -0.027171 0.634000 0.508643 0.508641 0.69467
-0.063300 -0.027129 0.633000 0.607468 0 0.794344
-0.060792 -0.027086 0.632000 0.609145 0 0.793059
-0.059494 -0.027043 0.631000 0.610288 0 0.79218
-0.058108 -0.026957 0.629000 0.821794 0 0.569784
-0.056819 -0.026914 0.628000 0.613088 0 0.790015
-0.054340 -0.026871 0.627000 0.531238 -0.532904 0.658635
-0.052976 -0.026786 0.625000 0.76957 -0.386634 0.508209
-0.051537 -0.026657 0.622000 0.901636 0 0.432497
-0.050190 -0.026571 0.620000 0.829487 0 0.558527
-0.046572 -0.026529 0.619000 0.622808 0 0.782375
-0.044071 -0.026443 0.617000 0.763276 0.382243 0.520865
-0.119786 -0.023957 0.585000 -0.979673 -0 -0.2006
-0.117356 -0.023916 0.584000 0.60524 0 0.796043
-0.116045 -0.023875 0.583000 0.525538 -0.527347 0.667619
-0.114540 -0.023793 0.581000 0.735568 0.368424 0.56851
-0.111940 -0.023711 0.579000 0.801278 0 0.598293
-0.110646 -0.023670 0.578000 0.611393 0 0.791327
-0.109166 -0.023589 0.576000 0.618998 0.619 0.483404
-0.107881 -0.023548 0.575000 0.515879 0.51588 0.683913
-0.106600 -0.023507 0.574000 0.516572 0.516571 0.682867
-0.105139 -0.023425 0.572000 0.807501 0 0.589866
-0.103868 -0.023384 0.571000 0.618225 0 0.786001
-0.102600 -0.023343 0.570000 0.619352 0 0.785113
-0.101158 -0.023261 0.568000 0.622512 0.622512 0.474297
-0.100429 -0.023343 0.570000 -0.0405925 0.997624 0.0556613
-0.108754 -0.025554 0.624000 -0.988322 -0 -0.152379
-0.107910 -0.025636 0.626000 -0.921353 0 0.388727
-0.106889 -0.025677 0.627000 -0.699397 0 0.714733
-0.103470 -0.025718 0.628000 -0.696767 0 0.717298
-0.100041 -0.025759 0.629000 -0.694092 0 0.719887
-0.097955 -0.025841 0.631000 -0.914024 0 0.40566
-0.096907 -0.025882 0.632000 -0.690167 0 0.723651
-0.095854 -0.025923 0.633000 -0.688832 0 0.724922
-0.094798 -0.025964 0.634000 -0.687521 0 0.726165
-0.093738 -0.026005 0.635000 -0.686215 0 0.727399
-0.092674 -0.026046 0.636000 -0.684913 0 0.728625
-0.090535 -0.026128 0.638000 -0.677475 -0.677469 0.286468
-0.088243 -0.026169 0.639000 -0.570383 -0.570385 0.591036
-0.083244 -0.026128 0.638000 0.595902 0 0.803057
-0.079349 -0.026046 0.636000 0.806775 0 0.590859
-0.074386 -0.026005 0.635000 0.601368 0 0.798972
-0.069438 -0.025964 0.634000 0.604131 0 0.796885
-0.062094 -0.025923 0.633000 0.608027 0 0.793917
-0.060792 -0.025882 0.632000 0.609145 0 0.793059
-0.059494 -0.025841 0.631000 0.610288 0 0.79218
-0.058108 -0.025759 0.629000 0.821794 0 0.569784
-0.056819 -0.025718 0.628000 0.613088 0 0.790015
-0.055534 -0.025677 0.627000 0.51589 0.515891 0.683896
-0.052976 -0.025595 0.625000 0.826191 0 0.56339
-0.051620 -0.025513 0.623000 0.77042 -0.38709 0.506571
-0.050352 -0.025472 0.622000 0.393957 -0.791682 0.466945
-0.049010 -0.025390 0.620000 0.830218 0 0.557439
-0.046572 -0.025350 0.619000 0.622808 0 0.782375
-0.045320 -0.025309 0.618000 0.521813 0.521813 0.67485
-0.044071 -0.025268 0.617000 0.625125 0 0.780524
-0.119990 -0.022882 0.586000 -0.979673 -2.51076e-07 -0.2006
-0.117557 -0.022843 0.585000 0.524155 -0.525921 0.669827
-0.116045 -0.022765 0.583000 0.79762 0 0.60316
-0.114540 -0.022687 0.581000 0.799089 0 0.601213
-0.113238 -0.022648 0.580000 0.513112 0.513109 0.688066
-0.111747 -0.022570 0.578000 0.737911 0.369588 0.564706
-0.110454 -0.022530 0.577000 0.51484 0.514839 0.685479
-0.109166 -0.022491 0.576000 0.613105 0 0.790001
-0.107881 -0.022452 0.575000 0.614221 0 0.789134
-0.106600 -0.022413 0.574000 0.615356 0 0.788249
-0.105139 -0.022335 0.572000 0.807501 0 0.589866
-0.103868 -0.022296 0.571000 0.618225 0 0.786001
-0.102600 -0.022257 0.570000 0.619352 0 0.785113
-0.101158 -0.022179 0.568000 0.811166 0 0.584816
-0.099343 -0.022257 0.570000 -0.0405963 0.997724 0.0538439
-0.107566 -0.024366 0.624000 -0.988248 0.0333296 -0.149184
-0.106889 -0.024483 0.627000 -0.975459 0 0.220181
-0.103470 -0.024522 0.628000 -0.696767 0 0.717298
-0.100041 -0.024561 0.629000 -0.694092 0 0.719887
-0.098110 -0.024678 0.632000 -0.926941 -0.308015 0.214261
-0.095854 -0.024717 0.633000 -0.688831 0 0.724922
-0.094798 -0.024756 0.634000 -0.687521 0 0.726165
-0.093738 -0.024795 0.635000 -0.686215 0 0.727399
-0.092674 -0.024834 0.636000 -0.684913 0 0.728625
-0.090535 -0.024912 0.638000 -0.907178 0 0.420747
-0.089460 -0.024951 0.639000 -0.570385 -0.570383 0.591036
-0.082029 -0.024912 0.638000 0.596446 0 0.802653
-0.078137 -0.024834 0.636000 0.807508 0 0.589856
-0.074386 -0.024795 0.635000 0.601368 0 0.798972
-0.071853 -0.024756 0.634000 0.509328 0.509326 0.693666
-0.067129 -0.024795 0.635000 -0.565263 -0.565258 0.6008
-0.064608 -0.024756 0.634000 0.606354 0 0.795195
-0.062094 -0.024717 0.633000 0.608026 0 0.793917
-0.060792 -0.024678 0.632000 0.609145 0 0.793059
-0.059494 -0.024639 0.631000 0.610288 0 0.79218
-0.058108 -0.024561 0.629000 0.821794 0 0.569784
-0.056819 -0.024522 0.628000 0.613088 0 0.790015
-0.055534 -0.024483 0.627000 0.61424 0 0.789119
-0.054253 -0.024444 0.626000 0.516919 0.51692 0.682341
-0.052976 -0.024405 0.625000 0.616494 0 0.78736
-0.051703 -0.024366 0.624000 0.532276 -0.533982 0.656921
-0.050433 -0.024327 0.623000 0.532973 -0.534721 0.655753
-0.049168 -0.024288 0.622000 0.393818 -0.791401 0.467537
-0.047829 -0.024210 0.620000 0.83095 0 0.556347
-0.046572 -0.024170 0.619000 0.622808 0 0.782375
-0.044071 -0.024092 0.617000 0.834247 0 0.551391
-0.119990 -0.021766 0.586000 -0.979673 -0 -0.2006
-0.117557 -0.021729 0.585000 0.604702 0 0.796452
-0.116045 -0.021654 0.583000 0.79762 0 0.60316
-0.114540 -0.021580 0.581000 0.799089 0 0.601213
-0.113238 -0.021543 0.580000 0.609146 0 0.793058
-0.111747 -0.021469 0.578000 0.801644 0 0.597802
-0.110454 -0.021431 0.577000 0.611958 0 0.790891
-0.108976 -0.021357 0.575000 0.740257 0.370762 0.560851
-0.106600 -0.021320 0.574000 0.615356 0 0.788249
-0.105323 -0.021283 0.573000 0.53117 -0.533028 0.658589
-0.104050 -0.021246 0.572000 0.531872 -0.533759 0.657429
-0.102780 -0.021209 0.571000 0.532606 -0.534441 0.65628
-0.101514 -0.021171 0.570000 0.393413 -0.790988 0.468577
-0.100076 -0.021097 0.568000 0.811899 0 0.583799
-0.096660 -0.021060 0.567000 0.0183621 0.998026 0.0600653
-0.105694 -0.023289 0.627000 -0.988853 -0 -0.148893
-0.102274 -0.023326 0.628000 -0.696103 0 0.717942
-0.098843 -0.023363 0.629000 -0.693433 0 0.720521
-0.097955 -0.023437 0.631000 -0.827213 0.41167 0.382423
-0.096907 -0.023474 0.632000 -0.690167 0 0.723651
-0.095854 -0.023511 0.633000 -0.688831 0 0.724922
-0.094798 -0.023549 0.634000 -0.687521 0 0.726165
-0.093738 -0.023586 0.635000 -0.686215 0 0.727399
-0.092674 -0.023623 0.636000 -0.684913 0 0.728625
-0.091750 -0.023697 0.638000 -0.67722 -0.677223 0.28765
-0.089460 -0.023734 0.639000 -0.681018 0 0.732266
-0.082029 -0.023697 0.638000 0.596446 0 0.802653
-0.078137 -0.023623 0.636000 0.807508 0 0.589856
-0.074386 -0.023586 0.635000 0.601368 0 0.798972
-0.063400 -0.023549 0.634000 0.606909 0 0.794771
-0.060889 -0.023511 0.633000 0.526277 -0.527944 0.666564
-0.059589 -0.023474 0.632000 0.526973 -0.528673 0.665436
-0.058108 -0.023363 0.629000 0.896693 0 0.442652
-0.056819 -0.023326 0.628000 0.613088 0 0.790015
-0.055534 -0.023289 0.627000 0.61424 0 0.789119
-0.054253 -0.023251 0.626000 0.615355 0 0.78825
-0.052976 -0.023214 0.625000 0.616494 0 0.78736
-0.050514 -0.023177 0.624000 0.532275 -0.533981 0.656923
-0.049168 -0.023103 0.622000 0.829493 0 0.558517
-0.047829 -0.023029 0.620000 0.83095 0 0.556347
-0.046572 -0.022991 0.619000 0.622808 0 0.782375
-0.045247 -0.022917 0.617000 0.633726 0.633726 0.443603
-0.119990 -0.020650 0.586000 -0.979673 -0 -0.2006
-0.117557 -0.020614 0.585000 0.604702 0 0.796452
-0.116045 -0.020544 0.583000 0.79762 0 0.60316
-0.114540 -0.020473 0.581000 0.799089 0 0.601213
-0.113238 -0.020438 0.580000 0.609146 0 0.793058
-0.111940 -0.020403 0.579000 0.526941 -0.52876 0.665391
-0.110454 -0.020332 0.577000 0.80274 0 0.596329
-0.109166 -0.020297 0.576000 0.528717 -0.530528 0.66257
-0.107881 -0.020262 0.575000 0.614221 0 0.789134
-0.106600 -0.020227 0.574000 0.615356 0 0.788249
-0.105323 -0.020191 0.573000 0.616494 0 0.78736
-0.104050 -0.020156 0.572000 0.617637 0 0.786463
-0.102780 -0.020121 0.571000 0.618799 0 0.78555
-0.101514 -0.020086 0.570000 0.619925 0 0.784661
-0.098994 -0.020015 0.568000 0.812631 0 0.582778
-0.097740 -0.019980 0.567000 0.522514 0.522511 0.673767
-0.094667 -0.020015 0.568000 -0.0187132 0.998457 0.0522758
-0.091260 -0.019980 0.567000 0.0180915 0.998172 0.0576594
-0.090021 -0.019945 0.566000 0.0178318 0.9982 0.0572694
-0.096907 -0.022270 0.632000 -0.990746 -0 -0.135731
-0.094798 -0.022341 0.634000 -0.911105 0 0.412175
-0.093738 -0.022376 0.635000 -0.686215 0 0.727399
-0.092674 -0.022411 0.636000 -0.684913 0 0.728625
-0.091750 -0.022482 0.638000 -0.907836 0 0.419325
-0.090677 -0.022517 0.639000 -0.570017 -0.570019 0.591743
-0.089600 -0.022552 0.640000 -0.569286 -0.569286 0.593151
-0.083374 -0.022517 0.639000 0.595358 0 0.80346
-0.080813 -0.022482 0.638000 0.596989 0 0.802249
-0.078137 -0.022411 0.636000 0.807508 0 0.589856
-0.074386 -0.022376 0.635000 0.601368 0 0.798972
-0.069438 -0.022341 0.634000 0.510702 0.5107 0.691642
-0.065919 -0.022376 0.635000 -0.671391 0 0.741103
-0.062192 -0.022341 0.634000 0.607469 0 0.794343
-0.058292 -0.022235 0.631000 0.772993 -0.519416 0.364265
-0.056819 -0.022130 0.628000 0.897594 0 0.440822
-0.055446 -0.022059 0.626000 0.756615 0.378899 0.532888
-0.051786 -0.022024 0.625000 0.617064 0 0.786913
-0.047983 -0.021918 0.622000 0.777467 -0.522482 0.350081
-0.046572 -0.021812 0.619000 0.904967 0 0.425483
-0.118671 -0.019500 0.585000 -0.980039 4.59749e-06 -0.198808
-0.116045 -0.019433 0.583000 0.79762 0 0.60316
-0.114540 -0.019367 0.581000 0.799089 0 0.601213
-0.113043 -0.019300 0.579000 0.737911 0.369591 0.564703
-0.110454 -0.019233 0.577000 0.80274 0 0.596329
-0.109166 -0.019200 0.576000 0.613105 0 0.790001
-0.107881 -0.019167 0.575000 0.614221 0 0.789134
-0.105507 -0.019133 0.574000 0.530107 -0.531959 0.660308
-0.104231 -0.019100 0.573000 0.530814 -0.532671 0.659165
-0.102780 -0.019033 0.571000 0.80934 0 0.587341
-0.100429 -0.019000 0.570000 0.620503 0 0.784204
-0.098994 -0.018933 0.568000 0.812631 0 0.582778
-0.097740 -0.018900 0.567000 0.623407 0 0.781897
-0.091099 -0.018867 0.566000 0.525311 0.525308 0.669402
-0.089862 -0.018833 0.565000 0.526014 0.526016 0.668294
-0.086480 -0.018800 0.564000 0.0164228 0.998434 0.0534747
-0.085254 -0.018767 0.563000 0.0162139 0.998455 0.0531566
-0.092674 -0.021200 0.636000 -0.991525 -0 -0.129914
-0.091750 -0.021267 0.638000 -0.907836 0 0.419325
-0.090819 -0.021333 0.640000 -0.830199 -0.414451 0.372828
-0.082157 -0.021300 0.639000 0.595902 0 0.803057
-0.079598 -0.021267 0.638000 0.597535 0 0.801843
-0.078137 -0.021200 0.636000 0.807508 0 0.589856
-0.074386 -0.021167 0.635000 0.601368 0 0.798972
-0.068230 -0.021133 0.634000 0.604682 0 0.796467
-0.065919 -0.021167 0.635000 -0.671391 0 0.741103
-0.059777 -0.021133 0.634000 0.608583 0 0.79349
-0.058015 -0.020933 0.628000 0.86107 0.432577 0.267274
-0.051933 -0.019133 0.574000 0.703372 0.703369 0.102665
-0.052976 -0.020833 0.625000 -0.997878 0.0179413 -0.0625916
-0.047983 -0.020733 0.622000 0.903639 0 0.428294
-0.118671 -0.018386 0.585000 -0.980039 -0 -0.198808
-0.116045 -0.018323 0.583000 0.79762 0 0.60316
-0.114540 -0.018260 0.581000 0.799089 0 0.601213
-0.113043 -0.018197 0.579000 0.800547 0 0.599271
-0.111747 -0.018166 0.578000 0.515533 0.51553 0.684438
-0.110454 -0.018134 0.577000 0.611958 0 0.790891
-0.109166 -0.018103 0.576000 0.613105 0 0.790001
-0.107881 -0.018071 0.575000 0.614221 0 0.789134
-0.105507 -0.018040 0.574000 0.615923 0 0.787806
-0.102960 -0.017977 0.572000 0.7542 -0.379116 0.536147
-0.101514 -0.017914 0.570000 0.746108 0.373697 0.551066
-0.098994 -0.017851 0.568000 0.812631 0 0.582778
-0.097740 -0.017820 0.567000 0.623407 0 0.781897
-0.090938 -0.017757 0.565000 0.752808 0.377069 0.539536
-0.087554 -0.017726 0.564000 0.527423 0.527423 0.666071
-0.086327 -0.017694 0.563000 0.528132 0.528131 0.664946
-0.090535 -0.020051 0.638000 -0.991779 0.0232664 -0.125826
-0.089600 -0.020114 0.640000 -0.90585 0 0.4236
-0.083374 -0.020083 0.639000 0.505911 0.505911 0.698647
-0.080813 -0.020051 0.638000 0.506934 0.506934 0.697163
-0.078137 -0.019989 0.636000 0.807508 0 0.589856
-0.074386 -0.019957 0.635000 0.601368 0 0.798972
-0.069438 -0.019926 0.634000 0.51139 0.511387 0.690625
-0.064710 -0.019957 0.635000 -0.670757 0 0.741677
-0.054120 -0.018040 0.574000 0.708598 0.698084 0.102801
-0.049660 -0.018009 0.573000 0.537014 0.537015 0.650562
-0.047560 -0.018040 0.574000 -0.0213519 0.998371 0.0529129
-0.049484 -0.019674 0.626000 -0.998134 -0.0176286 -0.0584677
-0.044280 -0.018040 0.574000 0.729369 0.677593 0.0942861
-0.118671 -0.017271 0.585000 -0.980039 -0 -0.198808
-0.116244 -0.017242 0.584000 0.52308 -0.524871 0.671489
-0.114934 -0.017212 0.583000 0.389114 -0.782268 0.486464
-0.113043 -0.017094 0.579000 0.904027 0 0.427476
-0.111747 -0.017065 0.578000 0.610831 0 0.791761
-0.110454 -0.017035 0.577000 0.611958 0 0.790891
-0.109166 -0.017006 0.576000 0.613105 0 0.790001
-0.107881 -0.016976 0.575000 0.614221 0 0.789134
-0.105507 -0.016947 0.574000 0.615923 0 0.787806
-0.102960 -0.016888 0.572000 0.808964 0 0.587858
-0.101514 -0.016829 0.570000 0.810439 0 0.585823
-0.098994 -0.016770 0.568000 0.812631 0 0.582778
-0.097740 -0.016740 0.567000 0.623407 0 0.781897
-0.090938 -0.016681 0.565000 0.818864 0 0.573988
-0.087554 -0.016651 0.564000 0.630383 0 0.776284
-0.085254 -0.016622 0.563000 0.632152 0 0.774845
-0.079609 -0.016563 0.561000 0.0293852 0.998347 0.0494011
-0.078680 -0.016592 0.562000 -0.0146111 0.998966 0.0430604
-0.074530 -0.016622 0.563000 -0.0147733 0.998951 0.0433523
-0.072514 -0.016651 0.564000 -0.0151173 0.998928 0.0437597
-0.079349 -0.018777 0.636000 -0.993803 0.0244099 -0.10844
-0.075595 -0.018748 0.635000 0.509671 0.509671 0.69316
-0.073061 -0.018718 0.634000 0.510702 0.5107 0.691642
-0.068123 -0.018689 0.633000 0.512419 0.512423 0.689093
-0.059623 -0.016651 0.564000 0.698536 0.707539 0.106941
-0.058445 -0.016622 0.563000 0.0158125 0.998717 0.0481143
-0.056400 -0.016651 0.564000 -0.0158679 0.998865 0.0449197
-0.055424 -0.016681 0.565000 -0.0160659 0.99885 0.0451729
-0.054026 -0.016917 0.573000 -0.991576 0.122001 0.0435007
-0.053027 -0.016947 0.574000 -0.707439 0 0.706775
-0.050663 -0.016888 0.572000 0.639933 0.639933 0.425408
-0.048569 -0.016917 0.573000 -0.70542 0 0.708789
-0.044126 -0.016888 0.572000 0.392446 0.783526 0.48174
-0.118671 -0.016157 0.585000 -0.980039 -0 -0.198808
-0.116244 -0.016130 0.584000 0.605796 0 0.79562
-0.113824 -0.016102 0.583000 0.231193 -0.932774 0.276554
-0.111747 -0.015964 0.578000 0.923482 0 0.383641
-0.110071 -0.015881 0.575000 0.749793 0.500734 0.432522
-0.105507 -0.015853 0.574000 0.615923 0 0.787806
-0.102960 -0.015798 0.572000 0.808964 0 0.587858
-0.101692 -0.015770 0.571000 0.531183 -0.533015 0.658589
-0.100429 -0.015743 0.570000 0.620503 0 0.784204
-0.098994 -0.015688 0.568000 0.812631 0 0.582778
-0.096660 -0.015660 0.567000 0.623985 0 0.781436
-0.091099 -0.015632 0.566000 0.536129 -0.538026 0.650456
-0.089862 -0.015605 0.565000 0.628626 0 0.777708
-0.087554 -0.015577 0.564000 0.630383 0 0.776284
-0.084182 -0.015550 0.563000 0.632743 0 0.774362
-0.079609 -0.015494 0.561000 0.827663 0 0.561225
-0.076539 -0.015522 0.562000 -0.731398 0 0.68195
-0.073458 -0.015550 0.563000 -0.728645 0 0.684891
-0.065834 -0.015522 0.562000 0.0154315 0.998825 0.0459436
-0.062734 -0.015550 0.563000 -0.0158715 0.998957 0.0428127
-0.055326 -0.015577 0.564000 -0.57768 0.575635 0.578731
-0.054348 -0.015605 0.565000 -0.714888 0 0.699239
-0.053743 -0.015743 0.570000 -0.854708 0.505671 0.117346
-0.052750 -0.015770 0.571000 -0.301069 0.896931 0.323839
-0.049573 -0.015798 0.572000 -0.706788 0 0.707425
-0.047477 -0.015826 0.573000 -0.704749 0 0.709457
-0.044126 -0.015798 0.572000 0.650173 0 0.759786
-0.118671 -0.015043 0.585000 -0.980039 -0 -0.198808
-0.115131 -0.015017 0.584000 0.606354 0 0.795195
-0.111553 -0.014837 0.577000 0.933504 0.134744 0.332288
-0.110071 -0.014786 0.575000 0.803479 0 0.595333
-0.105507 -0.014760 0.574000 0.615923 0 0.787806
-0.103140 -0.014734 0.573000 0.529748 -0.531599 0.660886
-0.101870 -0.014709 0.572000 0.530445 -0.532335 0.659733
-0.100605 -0.014683 0.571000 0.531183 -0.533012 0.658591
-0.099169 -0.014631 0.569000 0.755945 -0.37997 0.533076
-0.097912 -0.014606 0.568000 0.62281 0 0.782373
-0.095580 -0.014580 0.567000 0.624566 0 0.780972
-0.091099 -0.014554 0.566000 0.627457 0 0.778651
-0.088786 -0.014529 0.565000 0.629212 0 0.777233
-0.087554 -0.014503 0.564000 0.630383 0 0.776284
-0.083110 -0.014477 0.563000 0.633332 0 0.77388
-0.079750 -0.014451 0.562000 0.540791 -0.542677 0.642687
-0.073458 -0.014477 0.563000 -0.728645 0 0.684891
-0.066905 -0.014451 0.562000 0.535956 0.535957 0.652305
-0.061662 -0.014477 0.563000 -0.721063 0 0.69287
-0.055326 -0.014503 0.564000 -0.716251 0 0.697843
-0.054348 -0.014529 0.565000 -0.714888 0 0.699239
-0.053743 -0.014657 0.570000 -0.992764 0 0.120078
-0.052750 -0.014683 0.571000 -0.709463 0 0.704743
-0.048484 -0.014709 0.572000 -0.706114 0 0.708098
-0.047477 -0.014734 0.573000 -0.704749 0 0.709457
-0.118671 -0.013929 0.585000 -0.980039 -0 -0.198808
-0.114019 -0.013905 0.584000 0.606912 0 0.794769
-0.111553 -0.013738 0.577000 0.943196 0 0.332237
-0.110071 -0.013690 0.575000 0.803479 0 0.595333
-0.105507 -0.013667 0.574000 0.615923 0 0.787806
-0.103140 -0.013643 0.573000 0.617635 0 0.786465
-0.101870 -0.013619 0.572000 0.618778 0 0.785566
-0.100605 -0.013595 0.571000 0.619948 0 0.784643
-0.099343 -0.013571 0.570000 0.531512 -0.533381 0.658027
-0.098085 -0.013548 0.569000 0.532221 -0.534095 0.656874
-0.096830 -0.013524 0.568000 0.623387 0 0.781914
-0.094500 -0.013500 0.567000 0.625147 0 0.780507
-0.091099 -0.013476 0.566000 0.627457 0 0.778651
-0.088786 -0.013452 0.565000 0.629212 0 0.777233
-0.086480 -0.013429 0.564000 0.630972 0 0.775806
-0.080965 -0.013405 0.563000 0.634515 0 0.77291
-0.078680 -0.013381 0.562000 0.63632 0 0.771426
-0.077748 -0.013405 0.563000 -0.59492 -0.59492 0.540501
-0.064764 -0.013381 0.562000 0.644114 0 0.764929
-0.061662 -0.013405 0.563000 -0.721063 0 0.69287
-0.056400 -0.013429 0.564000 -0.587239 -0.587239 0.557047
-0.054540 -0.013500 0.567000 -0.815567 -0.542749 0.200683
-0.053649 -0.013548 0.569000 -0.82854 0.412077 0.379096
-0.052657 -0.013571 0.570000 -0.575095 0.57308 0.583819
-0.051662 -0.013595 0.571000 -0.708788 0 0.705421
-0.048484 -0.013619 0.572000 -0.706114 0 0.708098
-0.047477 -0.013643 0.573000 -0.704749 0 0.709457
-0.045373 -0.013667 0.574000 -0.579547 -0.579546 0.572933
-0.043111 -0.013643 0.573000 3.91863e-08 -0.999717 -0.0238028
-0.118671 -0.012814 0.585000 -0.943154 0 0.332355
-0.114019 -0.012792 0.584000 0.606912 0 0.794769
-0.112520 -0.012749 0.582000 0.356131 -0.901147 0.247193
-0.110263 -0.012617 0.576000 0.925604 -0.156147 0.344782
-0.107881 -0.012595 0.575000 0.614221 0 0.789134
-0.105507 -0.012573 0.574000 0.615923 0 0.787806
-0.103140 -0.012551 0.573000 0.617635 0 0.786465
-0.101870 -0.012530 0.572000 0.618778 0 0.785566
-0.099343 -0.012486 0.570000 0.811904 0 0.583791
-0.097001 -0.012464 0.569000 0.532218 -0.534095 0.656877
-0.095749 -0.012442 0.568000 0.623967 0 0.781451
-0.094500 -0.012420 0.567000 0.625147 0 0.780507
-0.091099 -0.012398 0.566000 0.627457 0 0.778651
-0.088786 -0.012376 0.565000 0.629212 0 0.777233
-0.085406 -0.012354 0.564000 0.631562 0 0.775326
-0.077748 -0.012332 0.563000 0.636297 0 0.771444
-0.073589 -0.012354 0.564000 -0.592719 -0.592721 0.545312
-0.067024 -0.012332 0.563000 0.642282 0 0.766469
-0.058549 -0.012354 0.564000 -0.587605 -0.587605 0.556274
-0.055522 -0.012398 0.566000 -0.678218 -0.678217 0.282919
-0.054540 -0.012420 0.567000 -0.713529 0 0.700626
-0.053649 -0.012464 0.569000 -0.913384 0 0.4071
-0.052657 -0.012486 0.570000 -0.710139 0 0.704062
-0.051662 -0.012508 0.571000 -0.708788 0 0.705421
-0.048484 -0.012530 0.572000 -0.706114 0 0.708098
-0.047477 -0.012551 0.573000 -0.704749 0 0.709457
-0.046467 -0.012573 0.574000 -0.579547 -0.579547 0.572932
-0.044357 -0.012595 0.575000 -0.578448 -0.578447 0.575149
-0.043187 -0.012573 0.574000 0.54832 -0.550235 0.629751
-0.119376 -0.011660 0.583000 -0.979673 -0 -0.2006
-0.118671 -0.011700 0.585000 -0.943154 0 0.332355
-0.114019 -0.011680 0.584000 0.606912 0 0.794769
-0.112520 -0.011640 0.582000 0.800179 0 0.599761
-0.110454 -0.011540 0.577000 0.909767 -0.183853 0.372186
-0.108069 -0.011520 0.576000 0.526242 -0.528045 0.666512
-0.106786 -0.011500 0.575000 0.614789 0 0.788692
-0.104413 -0.011480 0.574000 0.616496 0 0.787358
-0.102049 -0.011460 0.573000 0.529039 -0.530886 0.662025
-0.100781 -0.011440 0.572000 0.619352 0 0.785113
-0.099343 -0.011400 0.570000 0.811904 0 0.583791
-0.097001 -0.011380 0.569000 0.622808 0 0.782375
-0.094667 -0.011360 0.568000 0.532916 -0.534831 0.655711
-0.093420 -0.011340 0.567000 0.625729 0 0.78004
-0.091099 -0.011320 0.566000 0.627457 0 0.778651
-0.088786 -0.011300 0.565000 0.629212 0 0.777233
-0.081109 -0.011280 0.564000 0.633922 0 0.773397
-0.076675 -0.011260 0.563000 0.636895 0 0.77095
-0.073589 -0.011280 0.564000 -0.727929 0 0.685652
-0.064879 -0.011260 0.563000 0.643489 0 0.765455
-0.060697 -0.011280 0.564000 -0.587971 -0.587971 0.5555
-0.057576 -0.011300 0.565000 -0.586506 -0.586507 0.558588
-0.055620 -0.011340 0.567000 -0.835064 -0.416795 0.359098
-0.054732 -0.011380 0.569000 -0.677347 -0.677346 0.287059
-0.053743 -0.011400 0.570000 -0.583211 -0.583212 0.565446
-0.051662 -0.011420 0.571000 -0.708788 0 0.705421
-0.048569 -0.011460 0.573000 -0.830236 -0.414381 0.372823
-0.047560 -0.011480 0.574000 -0.579547 -0.579546 0.572932
-0.045452 -0.011500 0.575000 -0.578447 -0.578448 0.57515
-0.118671 -0.010586 0.585000 -0.980039 -0 -0.198808
-0.112907 -0.010568 0.584000 0.387571 -0.779126 0.492698
-0.110646 -0.010459 0.578000 0.925227 -0.156073 0.345826
-0.109355 -0.010441 0.577000 0.612521 0 0.790455
-0.108069 -0.010423 0.576000 0.613672 0 0.789561
-0.106786 -0.010405 0.575000 0.614789 0 0.788691
-0.104413 -0.010387 0.574000 0.616496 0 0.787358
-0.102049 -0.010369 0.573000 0.618207 0 0.786015
-0.100781 -0.010350 0.572000 0.619352 0 0.785113
-0.099517 -0.010332 0.571000 0.530115 -0.531945 0.660313
-0.098257 -0.010314 0.570000 0.621654 0 0.783292
-0.095917 -0.010296 0.569000 0.623387 0 0.781914
-0.094667 -0.010278 0.568000 0.624545 0 0.780989
-0.093420 -0.010260 0.567000 0.625729 0 0.78004
-0.091099 -0.010242 0.566000 0.627457 0 0.778651
-0.088786 -0.010224 0.565000 0.629213 0 0.777233
-0.078960 -0.010206 0.564000 0.635109 0 0.772422
-0.072643 -0.010224 0.565000 -0.59126 -0.59126 0.548473
-0.067143 -0.010206 0.564000 0.641681 0 0.766971
-0.063807 -0.010188 0.563000 0.644092 0 0.764948
-0.061771 -0.010206 0.564000 -0.58797 -0.587971 0.555501
-0.059729 -0.010224 0.565000 -0.586872 -0.586874 0.557818
-0.056600 -0.010242 0.566000 -0.58541 -0.585409 0.560884
-0.055718 -0.010278 0.568000 -0.834585 -0.416571 0.360467
-0.054829 -0.010314 0.570000 -0.833626 -0.41608 0.363243
-0.052750 -0.010332 0.571000 -0.582113 -0.582112 0.567706
-0.049573 -0.010350 0.572000 -0.580659 -0.580658 0.570676
-0.048569 -0.010369 0.573000 -0.70542 0 0.708789
-0.047560 -0.010387 0.574000 -0.704077 0 0.710123
-0.046548 -0.010405 0.575000 -0.578448 -0.578447 0.57515
-0.118671 -0.009471 0.585000 -0.980039 -0 -0.198808
-0.112713 -0.009439 0.583000 0.739967 0.37061 0.561334
-0.111220 -0.009407 0.581000 0.512284 -0.775049 0.369951
-0.109545 -0.009358 0.578000 0.83964 -0.281821 0.464307
-0.108256 -0.009342 0.577000 0.525162 -0.52701 0.66818
-0.106971 -0.009326 0.576000 0.525887 -0.527691 0.667073
-0.105690 -0.009310 0.575000 0.615356 0 0.788249
-0.103320 -0.009293 0.574000 0.617065 0 0.786912
-0.100957 -0.009277 0.573000 0.528684 -0.53053 0.662594
-0.099517 -0.009245 0.571000 0.811537 0 0.584301
-0.097171 -0.009229 0.570000 0.622229 0 0.782835
-0.095917 -0.009212 0.569000 0.623387 0 0.781914
-0.094667 -0.009196 0.568000 0.624545 0 0.780989
-0.092340 -0.009180 0.567000 0.62631 0 0.779574
-0.090021 -0.009164 0.566000 0.628038 0 0.778183
-0.088786 -0.009148 0.565000 0.629212 0 0.777233
-0.077886 -0.009131 0.564000 0.635702 0 0.771935
-0.074795 -0.009148 0.565000 -0.591624 -0.591623 0.547689
-0.066069 -0.009131 0.564000 0.642284 0 0.766467
-0.060805 -0.009148 0.565000 -0.586873 -0.586872 0.557817
-0.057678 -0.009164 0.566000 -0.585409 -0.585409 0.560885
-0.056800 -0.009196 0.568000 -0.677473 -0.677471 0.286467
-0.055914 -0.009229 0.570000 -0.676967 -0.676967 0.288844
-0.053837 -0.009245 0.571000 -0.582113 -0.582113 0.567705
-0.050663 -0.009261 0.572000 -0.580659 -0.580659 0.570675
-0.049660 -0.009277 0.573000 -0.579913 -0.579914 0.57219
-0.047560 -0.009293 0.574000 -0.704077 0 0.710123
-0.046548 -0.009310 0.575000 -0.702738 0 0.711448
-0.117557 -0.008357 0.585000 -0.980401 -0 -0.197014
-0.114019 -0.008343 0.584000 0.516227 0.516227 0.683389
-0.112713 -0.008329 0.583000 0.608023 0 0.793919
-0.111220 -0.008300 0.581000 0.801285 0 0.598283
-0.109545 -0.008257 0.578000 0.873094 0 0.487552
-0.106971 -0.008229 0.576000 0.805309 0 0.592855
-0.105690 -0.008214 0.575000 0.615356 0 0.788249
-0.103320 -0.008200 0.574000 0.617065 0 0.786912
-0.100957 -0.008186 0.573000 0.618781 0 0.785564
-0.098430 -0.008157 0.571000 0.812272 0 0.583278
-0.096086 -0.008143 0.570000 0.530798 -0.532665 0.659183
-0.094833 -0.008129 0.569000 0.531507 -0.533375 0.658036
-0.093585 -0.008114 0.568000 0.625124 0 0.780525
-0.092340 -0.008100 0.567000 0.62631 0 0.779574
-0.088786 -0.008071 0.565000 0.820329 0 0.571891
-0.064994 -0.008057 0.564000 0.642885 0 0.765963
-0.061881 -0.008071 0.565000 -0.586873 -0.586872 0.557817
-0.058756 -0.008086 0.566000 -0.585409 -0.58541 0.560884
-0.057780 -0.008100 0.567000 -0.584676 -0.584678 0.562411
-0.056800 -0.008114 0.568000 -0.714231 0 0.69991
-0.055914 -0.008143 0.570000 -0.914347 0 0.404932
-0.054925 -0.008157 0.571000 -0.582112 -0.582113 0.567706
-0.051752 -0.008171 0.572000 -0.58066 -0.580659 0.570675
-0.049660 -0.008186 0.573000 -0.706092 0 0.70812
-0.048653 -0.008200 0.574000 -0.578813 -0.578813 0.574413
-0.047643 -0.008214 0.575000 -0.578081 -0.57808 0.575887
-0.045531 -0.008229 0.576000 -0.576981 -0.576981 0.578088
-0.043262 -0.008214 0.575000 0.648953 0 0.760828
-0.116443 -0.007243 0.585000 -0.98076 -0 -0.195218
-0.114019 -0.007230 0.584000 0.606912 0 0.794769
-0.112713 -0.007218 0.583000 0.608023 0 0.793919
-0.111220 -0.007193 0.581000 0.801285 0 0.598283
-0.109734 -0.007169 0.579000 0.746345 -0.375104 0.549787
-0.108444 -0.007156 0.578000 0.612521 0 0.790455
-0.107157 -0.007144 0.577000 0.524807 -0.526657 0.668738
-0.105874 -0.007131 0.576000 0.525534 -0.527334 0.667632
-0.104595 -0.007119 0.575000 0.615926 0 0.787804
-0.102227 -0.007107 0.574000 0.617637 0 0.786463
-0.100957 -0.007094 0.573000 0.61878 0 0.785564
-0.098430 -0.007070 0.571000 0.812272 0 0.583278
-0.096086 -0.007057 0.570000 0.622808 0 0.782375
-0.094833 -0.007045 0.569000 0.623967 0 0.781451
-0.093585 -0.007032 0.568000 0.625124 0 0.780525
-0.091260 -0.007020 0.567000 0.626893 0 0.779105
-0.088943 -0.007008 0.566000 0.533985 -0.535874 0.653987
-0.087710 -0.006995 0.565000 0.629798 0 0.776759
-0.068459 -0.007008 0.566000 -0.588335 -0.588335 0.554728
-0.065110 -0.006995 0.565000 0.542192 -0.544116 0.640285
-0.059834 -0.007008 0.566000 -0.585409 -0.585409 0.560886
-0.058860 -0.007020 0.567000 -0.584677 -0.584676 0.562412
-0.057984 -0.007045 0.569000 -0.677095 -0.677095 0.288243
-0.056012 -0.007070 0.571000 -0.833146 -0.415841 0.364614
-0.055021 -0.007082 0.572000 -0.581391 -0.581392 0.569181
-0.050751 -0.007094 0.573000 -0.579547 -0.579547 0.572932
-0.049747 -0.007107 0.574000 -0.578814 -0.578814 0.574412
-0.047643 -0.007119 0.575000 -0.703408 0 0.710787
-0.046629 -0.007131 0.576000 -0.576983 -0.576981 0.578086
-0.174129 -0.008014 0.765000 -5.28922e-07 -0.999945 -0.0104757
-0.116244 -0.006118 0.584000 -0.98076 -2.46732e-06 -0.195218
-0.113824 -0.006108 0.583000 0.517266 0.517265 0.681816
-0.112520 -0.006097 0.582000 0.517962 0.517963 0.680757
-0.111220 -0.006087 0.581000 0.609727 0 0.792612
-0.109734 -0.006066 0.579000 0.802742 0 0.596327
-0.107343 -0.006055 0.578000 0.524111 -0.525932 0.669853
-0.106058 -0.006045 0.577000 0.524809 -0.526653 0.668739
-0.104777 -0.006034 0.576000 0.525535 -0.52733 0.667635
-0.103500 -0.006024 0.575000 0.616492 0 0.787362
-0.101133 -0.006013 0.574000 0.527271 -0.52911 0.664852
-0.099866 -0.006003 0.573000 0.61935 0 0.785115
-0.098602 -0.005992 0.572000 0.52867 -0.530555 0.662586
-0.097342 -0.005982 0.571000 0.621674 0 0.783276
-0.096086 -0.005971 0.570000 0.622808 0 0.782375
-0.093750 -0.005961 0.569000 0.531153 -0.533015 0.658614
-0.092503 -0.005950 0.568000 0.625706 0 0.780059
-0.091260 -0.005940 0.567000 0.626893 0 0.779105
-0.088943 -0.005930 0.566000 0.628626 0 0.777708
-0.084481 -0.005919 0.565000 0.631564 0 0.775324
-0.069537 -0.005930 0.566000 -0.588338 -0.588335 0.554725
-0.065340 -0.005940 0.567000 -0.411649 -0.824752 0.387722
-0.058964 -0.005950 0.568000 -0.583957 -0.583957 0.563905
-0.057984 -0.005961 0.569000 -0.714207 0 0.699935
-0.056110 -0.005992 0.572000 -0.921441 -0.306081 0.23929
-0.051843 -0.006003 0.573000 -0.579548 -0.579546 0.572932
-0.050840 -0.006013 0.574000 -0.578814 -0.578814 0.574411
-0.046548 -0.006024 0.575000 -0.573609 0.571618 0.586707
-0.045531 -0.006034 0.576000 -0.701401 0 0.712767
-0.174129 -0.006557 0.765000 0.722078 0 0.691811
-0.172220 -0.006540 0.763000 1.49696e-07 -0.999963 -0.00857108
-0.170319 -0.006523 0.761000 -2.01464e-07 -0.999963 -0.00857116
-0.114934 -0.004997 0.583000 -0.981116 1.79422e-06 -0.19342
-0.112520 -0.004989 0.582000 0.608586 0 0.793488
-0.111220 -0.004980 0.581000 0.609727 0 0.792612
-0.109734 -0.004963 0.579000 0.802742 0 0.596327
-0.107343 -0.004954 0.578000 0.613087 0 0.790016
-0.106058 -0.004946 0.577000 0.614223 0 0.789132
-0.104777 -0.004937 0.576000 0.615374 0 0.788235
-0.102405 -0.004929 0.575000 0.617065 0 0.786912
-0.101133 -0.004920 0.574000 0.618207 0 0.786015
-0.099866 -0.004911 0.573000 0.61935 0 0.785115
-0.098602 -0.004903 0.572000 0.620503 0 0.784204
-0.097342 -0.004894 0.571000 0.621674 0 0.783276
-0.095000 -0.004886 0.570000 0.623387 0 0.781914
-0.093750 -0.004877 0.569000 0.624547 0 0.780987
-0.092503 -0.004869 0.568000 0.625706 0 0.780059
-0.090180 -0.004860 0.567000 0.627475 0 0.778636
-0.087865 -0.004851 0.566000 0.62921 0 0.777235
-0.084481 -0.004843 0.565000 0.631564 0 0.775324
-0.069537 -0.004851 0.566000 -0.72379 0 0.690021
-0.066420 -0.004860 0.567000 -0.586507 -0.586509 0.558586
-0.065570 -0.004877 0.569000 -0.678343 -0.678343 0.282315
-0.064373 -0.004869 0.568000 0.540751 -0.542689 0.64271
-0.063180 -0.004860 0.567000 0.642304 0 0.76645
-0.059068 -0.004877 0.569000 -0.834597 -0.416549 0.360465
-0.056012 -0.004894 0.571000 -0.830975 0.41333 0.372342
-0.055021 -0.004903 0.572000 -0.710161 0 0.704039
-0.051843 -0.004911 0.573000 -0.707439 0 0.706775
-0.049747 -0.004920 0.574000 -0.70542 0 0.708789
-0.045452 -0.004929 0.575000 -0.573607 0.571617 0.58671
-0.171769 -0.005073 0.761000 0.585228 0.585231 0.561259
-0.113433 -0.003873 0.581000 -0.981469 -4.7151e-06 -0.19162
-0.109734 -0.003860 0.579000 0.802742 0 0.596327
-0.107343 -0.003853 0.578000 0.613087 0 0.790016
-0.106058 -0.003847 0.577000 0.614223 0 0.789132
-0.104777 -0.003840 0.576000 0.615374 0 0.788235
-0.102405 -0.003833 0.575000 0.617065 0 0.786912
-0.100040 -0.003827 0.574000 0.526915 -0.528756 0.665416
-0.098774 -0.003820 0.573000 0.527623 -0.529461 0.664293
