-0.105499 -0.055469 1.142000 -0.680292 -0.680293 0.27277
-0.103686 -0.055663 1.146000 -0.910785 0 0.412881
-0.099667 -0.055857 1.150000 -0.908817 0 0.417195
-0.095534 -0.056003 1.153000 -0.839478 0 0.543394
-0.093662 -0.056197 1.157000 -0.905684 0 0.423953
-0.089563 -0.056391 1.161000 -0.677157 -0.677159 0.287948
-0.080995 -0.056586 1.165000 -0.900347 0 0.435174
-0.074593 -0.056780 1.169000 -0.313723 0.928403 0.199114
-0.072862 -0.057169 1.177000 -0.876128 0.433605 0.210679
-0.063677 -0.056974 1.173000 0.851899 0 0.523706
-0.121506 -0.144111 2.967000 -0.999162 -6.87673e-08 -0.0409181
-0.244875 -0.053807 1.153000 -0.978183 -0 -0.207747
-0.243521 -0.053993 1.157000 -0.947184 0 0.320691
-0.231698 -0.053807 1.153000 0.799266 0 0.600977
-0.226714 -0.053667 1.150000 0.732562 0 0.6807
-0.214871 -0.053993 1.157000 -0.992005 0 0.126195
-0.213403 -0.054180 1.161000 -0.689623 -0.689622 0.221003
-0.208260 -0.053993 1.157000 0.806591 0 0.59111
-0.204810 -0.053667 1.150000 0.830993 0.357385 0.426294
-0.197549 -0.053480 1.146000 0.811532 0 0.584309
-0.194684 -0.053293 1.142000 0.813004 0 0.582259
-0.189667 -0.053107 1.138000 0.623386 0.623387 0.471995
-0.186346 -0.052780 1.131000 8.06383e-07 -0.998913 -0.0466158
-0.183540 -0.052593 1.127000 3.41268e-07 -0.998913 -0.0466159
-0.165776 -0.052407 1.123000 0.628161 0.62816 0.45916
-0.137600 -0.052267 1.120000 0.767261 0 0.641334
-0.127273 -0.052407 1.123000 -0.658847 -0.658849 0.363096
-0.125580 -0.052593 1.127000 -0.92088 0 0.389845
-0.117409 -0.052780 1.131000 -0.917718 0 0.397232
-0.109080 -0.052920 1.134000 -0.849169 0 0.528122
-0.107297 -0.053107 1.138000 -0.913384 0 0.4071
-0.105499 -0.053293 1.142000 -0.912082 0 0.410009
-0.103686 -0.053480 1.146000 -0.910785 0 0.412881
-0.101857 -0.053667 1.150000 -0.67908 -0.67908 0.278751
-0.095866 -0.053993 1.157000 -0.855535 -0.487604 0.174078
-0.091774 -0.054180 1.161000 -0.67716 -0.677156 0.287948
-0.080995 -0.054367 1.165000 -0.900347 0 0.435174
-0.072367 -0.054553 1.169000 -0.435971 0.863037 0.255142
-0.070620 -0.054927 1.177000 -0.976985 0 0.213308
-0.065911 -0.054740 1.173000 0.640184 0.640186 0.42465
-0.120482 -0.137293 2.942000 -0.999162 1.11935e-07 -0.0409181
-0.115854 -0.138460 2.967000 -0.983296 0 0.182012
-0.245725 -0.051790 1.157000 -0.978182 -7.66341e-06 -0.207748
-0.231698 -0.051610 1.153000 0.799266 0 0.600977
-0.224524 -0.051476 1.150000 0.733259 0 0.679949
-0.212668 -0.051790 1.157000 -0.983523 -5.5042e-06 -0.180781
-0.204810 -0.051476 1.150000 -0.984509 -0 -0.175336
-0.197549 -0.051297 1.146000 0.811532 0 0.584309
-0.194684 -0.051118 1.142000 0.813003 0 0.582259
-0.189000 -0.050760 1.134000 0.826386 0.41465 0.380989
-0.186346 -0.050626 1.131000 0.748933 0 0.662645
-0.179247 -0.050447 1.127000 0.820152 0 0.572145
-0.167915 -0.050268 1.123000 0.628162 0.62816 0.459159
-0.163200 -0.050133 1.120000 0.595884 0.595884 0.538373
-0.155081 -0.050268 1.123000 -0.867651 0 0.497173
-0.135467 -0.050133 1.120000 0.767984 0 0.64047
-0.131551 -0.050268 1.123000 -0.659147 -0.659148 0.362006
-0.125580 -0.050447 1.127000 -0.92088 0 0.389845
-0.117409 -0.050626 1.131000 -0.917718 0 0.397232
-0.109080 -0.050760 1.134000 -0.849169 0 0.528122
-0.105499 -0.051118 1.142000 -0.98459 0 0.174881
-0.101503 -0.051297 1.146000 -0.668787 0.664115 0.334179
-0.099667 -0.051476 1.150000 -0.908817 0 0.417195
-0.095866 -0.051790 1.157000 -0.97454 0 0.224212
-0.091774 -0.051969 1.161000 -0.904363 0 0.426764
-0.078776 -0.052148 1.165000 -0.899674 0 0.436562
-0.070620 -0.052685 1.177000 -0.992288 0 0.123956
-0.114878 -0.131690 2.942000 -0.999238 5.7371e-07 -0.0390179
-0.231698 -0.049414 1.153000 0.799266 0 0.600977
-0.224524 -0.049286 1.150000 0.733259 0 0.679949
-0.202619 -0.049286 1.150000 -0.984831 -0 -0.173518
-0.197549 -0.049114 1.146000 0.811532 0 0.584309
-0.194684 -0.048943 1.142000 0.813004 0 0.582259
-0.191834 -0.048771 1.138000 0.623734 0.623735 0.471073
-0.189000 -0.048600 1.134000 0.815937 0 0.578141
-0.184191 -0.048471 1.131000 0.749641 0 0.661845
-0.177100 -0.048300 1.127000 0.820885 0 0.571094
-0.167915 -0.048129 1.123000 0.824544 0 0.565799
-0.165333 -0.048000 1.120000 0.595885 0.595884 0.538371
-0.150803 -0.048129 1.123000 -0.866224 0 0.499655
-0.125580 -0.048300 1.127000 -0.92088 0 0.389845
-0.117409 -0.048471 1.131000 -0.917718 0 0.397232
-0.109080 -0.048600 1.134000 -0.849169 0 0.528122
-0.107297 -0.048771 1.138000 -0.680053 -0.680055 0.273958
-0.105499 -0.048943 1.142000 -0.912082 0 0.410009
-0.101503 -0.049114 1.146000 -0.910132 0 0.414319
-0.097476 -0.049286 1.150000 -0.90816 0 0.418624
-0.095866 -0.049586 1.157000 -0.97454 0 0.224212
-0.093986 -0.049757 1.161000 -0.676906 -0.676907 0.28913
-0.076557 -0.049929 1.165000 -0.899 0 0.437949
-0.070620 -0.050443 1.177000 -0.992288 0 0.123956
-0.113902 -0.125014 2.917000 -0.999238 -4.26983e-07 -0.0390179
-0.231698 -0.047218 1.153000 0.799266 0 0.600977
-0.226714 -0.047095 1.150000 0.583093 0.58309 0.565692
-0.202619 -0.047095 1.150000 -0.984831 -0 -0.173518
-0.197549 -0.046931 1.146000 0.811532 0 0.584309
-0.194684 -0.046768 1.142000 0.813004 0 0.582259
-0.189000 -0.046440 1.134000 0.915797 0 0.401641
-0.182037 -0.046317 1.131000 0.75035 0 0.66104
-0.174953 -0.046153 1.127000 0.821617 0 0.570039
-0.167915 -0.045990 1.123000 0.824543 0 0.565799
-0.165333 -0.045867 1.120000 0.757951 0 0.652312
-0.148664 -0.045990 1.123000 -0.865509 0 0.500894
-0.125580 -0.046153 1.127000 -0.92088 0 0.389845
-0.117409 -0.046317 1.131000 -0.917718 0 0.397232
-0.109080 -0.046440 1.134000 -0.849169 0 0.528122
-0.105130 -0.046604 1.138000 -0.670494 0.665775 0.327384
-0.103324 -0.046768 1.142000 -0.911432 0 0.411452
-0.099320 -0.046931 1.146000 -0.909478 0 0.415753
-0.097476 -0.047095 1.150000 -0.90816 0 0.418624
-0.095866 -0.047382 1.157000 -0.97454 0 0.224212
-0.093986 -0.047546 1.161000 -0.905027 0 0.425355
-0.076557 -0.047710 1.165000 -0.899 0 0.437949
-0.072367 -0.047873 1.169000 -0.673557 -0.673555 0.304377
-0.070620 -0.048201 1.177000 -0.976985 0 0.213308
-0.246574 -0.045334 1.161000 -0.691763 -0.691762 0.207191
-0.243521 -0.045178 1.157000 0.794887 0 0.606757
-0.242151 -0.045334 1.161000 -0.691383 -0.691382 0.209715
-0.236910 -0.045178 1.157000 0.797079 0 0.603875
-0.233894 -0.045022 1.153000 0.616787 0.616786 0.489028
-0.202619 -0.044905 1.150000 -0.984831 -0 -0.173518
-0.197549 -0.044749 1.146000 0.811532 0 0.584309
-0.194684 -0.044592 1.142000 0.813004 0 0.582259
-0.189000 -0.044280 1.134000 0.915797 0 0.401641
-0.182037 -0.044163 1.131000 0.75035 0 0.66104
-0.172807 -0.044007 1.127000 0.82235 0 0.568982
-0.167915 -0.043850 1.123000 0.824544 0 0.565799
-0.165333 -0.043733 1.120000 0.757951 0 0.652312
-0.148664 -0.043850 1.123000 -0.865509 0 0.500894
-0.125580 -0.044007 1.127000 -0.92088 0 0.389845
-0.115254 -0.044163 1.131000 -0.91708 0 0.398703
-0.106920 -0.044280 1.134000 -0.848442 0 0.529288
-0.105130 -0.044436 1.138000 -0.912737 0 0.408549
-0.101149 -0.044592 1.142000 -0.91078 0 0.412893
-0.099320 -0.044749 1.146000 -0.909478 0 0.415753
-0.097730 -0.045022 1.153000 -0.902894 -0.38561 0.189969
-0.095866 -0.045178 1.157000 -0.906346 0 0.422535
-0.093986 -0.045334 1.161000 -0.905027 0 0.425355
-0.087652 -0.045490 1.165000 -0.675376 -0.675374 0.296205
-0.072367 -0.045647 1.169000 -0.896979 0 0.442074
-0.070620 -0.045959 1.177000 -0.976985 0 0.213308
-0.255420 -0.043123 1.161000 -8.18423e-07 -0.999311 -0.0371174
-0.202619 -0.042714 1.150000 -0.984831 -0 -0.173518
-0.197549 -0.042566 1.146000 0.811532 0 0.584309
-0.192509 -0.042417 1.142000 0.813738 0 0.581232
-0.186840 -0.042120 1.134000 0.916438 0 0.400176
-0.182037 -0.042009 1.131000 0.75035 0 0.66104
-0.172807 -0.041860 1.127000 0.82235 0 0.568982
-0.170054 -0.041711 1.123000 0.629194 0.629196 0.45632
-0.165333 -0.041600 1.120000 0.757951 0 0.652312
-0.150803 -0.041711 1.123000 -0.660638 -0.660639 0.356531
-0.125580 -0.041860 1.127000 -0.92088 0 0.389845
-0.115254 -0.042009 1.131000 -0.91708 0 0.398703
-0.106920 -0.042120 1.134000 -0.848442 0 0.529288
-0.102962 -0.042269 1.138000 -0.912087 0 0.409996
-0.099320 -0.042566 1.146000 -0.98344 0 0.181233
-0.097730 -0.042826 1.153000 -0.975174 0 0.221439
-0.095866 -0.042974 1.157000 -0.906346 0 0.422535
-0.093986 -0.043123 1.161000 -0.905027 0 0.425355
-0.089871 -0.043271 1.165000 -0.675375 -0.675375 0.296204
-0.074593 -0.043420 1.169000 -0.673293 -0.673291 0.30554
-0.070620 -0.043717 1.177000 -0.976985 0 0.213308
-0.200429 -0.040524 1.150000 0.740955 0 0.671555
-0.197549 -0.040383 1.146000 0.811532 0 0.584309
-0.192509 -0.040242 1.142000 0.813738 0 0.581232
-0.186840 -0.039960 1.134000 0.916438 0 0.400176
-0.179883 -0.039854 1.131000 0.751059 0 0.660235
-0.172807 -0.039713 1.127000 0.82235 0 0.568982
-0.170054 -0.039572 1.123000 0.82381 0 0.566866
-0.165333 -0.039467 1.120000 0.757951 0 0.652312
-0.152942 -0.039572 1.123000 -0.66064 -0.660637 0.35653
-0.127727 -0.039713 1.127000 -0.682129 -0.682129 0.263438
-0.115254 -0.039854 1.131000 -0.91708 0 0.398703
-0.109080 -0.039960 1.134000 -0.653134 -0.653133 0.383187
-0.105130 -0.040101 1.138000 -0.678837 -0.678836 0.279932
-0.099320 -0.040383 1.146000 -0.98344 0 0.181233
-0.097730 -0.040630 1.153000 -0.975174 0 0.221439
-0.095866 -0.040770 1.157000 -0.906346 0 0.422535
-0.093986 -0.040911 1.161000 -0.905027 0 0.425355
-0.092090 -0.041052 1.165000 -0.675375 -0.675375 0.296205
-0.074593 -0.041193 1.169000 -0.897656 0 0.440697
-0.255420 -0.038700 1.161000 0.790505 0 0.612456
-0.203148 -0.038433 1.153000 0.808782 0 0.588108
-0.200429 -0.038333 1.150000 0.740955 0 0.671555
-0.195366 -0.038200 1.146000 0.812264 0 0.58329
-0.192509 -0.038067 1.142000 0.813738 0 0.581232
-0.186840 -0.037800 1.134000 0.916438 0 0.400176
-0.177729 -0.037700 1.131000 0.751769 0 0.659426
-0.170660 -0.037567 1.127000 0.639513 -0.644049 0.41979
-0.167915 -0.037433 1.123000 0.824544 0 0.565799
-0.161067 -0.037333 1.120000 0.759377 0 0.65065
-0.159359 -0.037433 1.123000 -0.66123 -0.661229 0.354332
-0.151340 -0.037567 1.127000 -0.684418 -0.684417 0.251285
-0.140108 -0.037433 1.123000 0.834061 0 0.551673
-0.127727 -0.037567 1.127000 -0.921509 0 0.388357
-0.115254 -0.037700 1.131000 -0.91708 0 0.398703
-0.109080 -0.037800 1.134000 -0.849169 0 0.528122
-0.105130 -0.037933 1.138000 -0.912737 0 0.408549
-0.101149 -0.038067 1.142000 -0.677844 -0.677845 0.2847
-0.099320 -0.038200 1.146000 -0.909478 0 0.415753
-0.097476 -0.038333 1.150000 -0.747077 0.556914 0.362935
-0.095866 -0.038567 1.157000 -0.97454 0 0.224212
-0.093986 -0.038700 1.161000 -0.905027 0 0.425355
-0.092090 -0.038833 1.165000 -0.903692 0 0.428184
-0.253209 -0.036489 1.161000 0.791229 0 0.61152
-0.208980 -0.036489 1.161000 -0.984183 1.321e-06 -0.177153
-0.203148 -0.036237 1.153000 0.911025 0 0.41235
-0.200429 -0.036143 1.150000 0.740955 0 0.671555
-0.195366 -0.036017 1.146000 0.812264 0 0.58329
-0.192509 -0.035891 1.142000 0.813738 0 0.581232
-0.186840 -0.035640 1.134000 0.916438 0 0.400176
-0.177729 -0.035546 1.131000 0.751769 0 0.659426
-0.170660 -0.035420 1.127000 0.823084 0 0.56792
-0.165776 -0.035294 1.123000 0.825276 0 0.56473
-0.151340 -0.035420 1.127000 -0.928321 0 0.371779
-0.142247 -0.035294 1.123000 0.634654 0.634657 0.440936
-0.125580 -0.035420 1.127000 -0.92088 0 0.389845
-0.115254 -0.035546 1.131000 -0.91708 0 0.398703
-0.111240 -0.035640 1.134000 -0.652821 -0.652823 0.384248
-0.105130 -0.035766 1.138000 -0.912737 0 0.408549
-0.103324 -0.035891 1.142000 -0.677845 -0.677845 0.284699
-0.101503 -0.036017 1.146000 -0.677346 -0.677347 0.28706
-0.097476 -0.036143 1.150000 -0.90816 0 0.418624
-0.095866 -0.036363 1.157000 -0.97454 0 0.224212
-0.093986 -0.036489 1.161000 -0.905027 0 0.425355
-0.092090 -0.036614 1.165000 -0.903692 0 0.428184
-0.265176 -0.034395 1.165000 -0.97506 -0 -0.221942
-0.263860 -0.034513 1.169000 -0.691763 -0.691764 0.20719
-0.260738 -0.034395 1.165000 0.788322 0 0.615263
-0.250997 -0.034277 1.161000 0.791959 0 0.610574
-0.203852 -0.034159 1.157000 0.632089 -0.636455 0.442028
-0.200951 -0.034041 1.153000 0.696132 -0.52529 0.489358
-0.198238 -0.033952 1.150000 0.741655 0 0.670782
-0.195366 -0.033834 1.146000 0.812264 0 0.58329
-0.190333 -0.033716 1.142000 0.814469 0 0.580207
-0.187499 -0.033598 1.138000 0.635639 -0.640135 0.431498
-0.184680 -0.033480 1.134000 0.817401 0 0.576069
-0.177729 -0.033391 1.131000 0.751769 0 0.659426
-0.170660 -0.033273 1.127000 0.823084 0 0.56792
-0.165776 -0.033155 1.123000 0.825276 0 0.56473
-0.153487 -0.033273 1.127000 -0.684194 -0.684193 0.252504
-0.142247 -0.033155 1.123000 0.833329 0 0.552778
-0.125580 -0.033273 1.127000 -0.92088 0 0.389845
-0.119563 -0.033391 1.131000 -0.680234 -0.680235 0.273059
-0.111240 -0.033480 1.134000 -0.849893 0 0.526955
-0.107297 -0.033598 1.138000 -0.678342 -0.678344 0.282313
-0.103324 -0.033716 1.142000 -0.911432 0 0.411452
-0.101503 -0.033834 1.146000 -0.910132 0 0.414319
-0.097476 -0.033952 1.150000 -0.90816 0 0.418624
-0.095534 -0.034041 1.153000 -0.556632 0.737678 0.382088
-0.093986 -0.034277 1.161000 -0.981776 0 0.190043
-0.089871 -0.034395 1.165000 -0.903025 0 0.429587
-0.083500 -0.034513 1.169000 -0.673293 -0.673292 0.305539
-0.074338 -0.034395 1.165000 0.849725 0 0.527226
-0.260738 -0.032176 1.165000 0.788322 0 0.615263
-0.250997 -0.032066 1.161000 0.791959 0 0.610574
-0.211919 -0.032176 1.165000 -0.983855 -6.22401e-06 -0.178968
-0.208980 -0.032066 1.161000 0.805851 0 0.592119
-0.203852 -0.031955 1.157000 0.808056 0 0.589106
-0.200951 -0.031845 1.153000 0.809516 0 0.587098
-0.198238 -0.031762 1.150000 0.741655 0 0.670782
-0.193183 -0.031651 1.146000 0.813 0 0.582264
-0.190333 -0.031541 1.142000 0.814469 0 0.580207
-0.184680 -0.031320 1.134000 0.917077 0 0.398711
-0.177729 -0.031237 1.131000 0.751769 0 0.659426
-0.170660 -0.031127 1.127000 0.823084 0 0.56792
-0.163637 -0.031016 1.123000 0.826008 0 0.563659
-0.157780 -0.031127 1.127000 -0.684418 -0.684418 0.251285
-0.142247 -0.031016 1.123000 0.833329 0 0.552778
-0.125580 -0.031127 1.127000 -0.92088 0 0.389845
-0.119563 -0.031237 1.131000 -0.918354 0 0.395759
-0.113400 -0.031320 1.134000 -0.652511 -0.652509 0.385308
-0.107297 -0.031430 1.138000 -0.913384 0 0.4071
-0.105499 -0.031541 1.142000 -0.677595 -0.677595 0.285885
-0.101503 -0.031651 1.146000 -0.910132 0 0.414319
-0.097476 -0.031762 1.150000 -0.90816 0 0.418624
-0.095534 -0.031845 1.153000 -0.839478 0 0.543394
-0.093986 -0.032066 1.161000 -0.981776 0 0.190043
-0.089871 -0.032176 1.165000 -0.903025 0 0.429587
-0.085727 -0.032287 1.169000 -0.673292 -0.673293 0.305541
-0.116510 -0.078576 2.845000 -0.981925 0 0.18927
-0.110192 -0.077941 2.822000 0.691489 0.691487 0.209021
-0.266087 -0.030060 1.169000 0.786137 0 0.618052
-0.260738 -0.029957 1.165000 0.788322 0 0.615263
-0.248786 -0.029854 1.161000 0.792691 0 0.609623
-0.209700 -0.029957 1.165000 0.82921 -0.418877 0.370072
-0.206769 -0.029854 1.161000 0.806586 0 0.591117
-0.203852 -0.029751 1.157000 0.808056 0 0.589106
-0.200951 -0.029649 1.153000 0.809516 0 0.587098
-0.198238 -0.029571 1.150000 0.741655 0 0.670782
-0.193183 -0.029469 1.146000 0.813 0 0.582264
-0.190333 -0.029366 1.142000 0.814469 0 0.580207
-0.184680 -0.029160 1.134000 0.917077 0 0.398711
-0.175574 -0.029083 1.131000 0.75248 0 0.658615
-0.168513 -0.028980 1.127000 0.823816 0 0.566857
-0.140108 -0.028877 1.123000 0.834061 0 0.551673
-0.125580 -0.028980 1.127000 -0.92088 0 0.389845
-0.121717 -0.029083 1.131000 -0.679994 -0.679993 0.274258
-0.113400 -0.029160 1.134000 -0.850618 0 0.525784
-0.109465 -0.029263 1.138000 -0.678096 -0.678095 0.283502
-0.105499 -0.029366 1.142000 -0.912082 0 0.410009
-0.101503 -0.029469 1.146000 -0.910132 0 0.414319
-0.097476 -0.029571 1.150000 -0.90816 0 0.418624
-0.095534 -0.029649 1.153000 -0.839478 0 0.543394
-0.093662 -0.029751 1.157000 -0.669648 0.665055 0.330565
-0.091774 -0.029854 1.161000 -0.904363 0 0.426764
-0.089871 -0.029957 1.165000 -0.903025 0 0.429587
-0.085727 -0.030060 1.169000 -0.901023 0 0.433771
-0.079317 -0.030163 1.173000 -0.67196 -0.671962 0.311348
-0.074593 -0.030060 1.169000 0.848993 0 0.528404
-0.120943 -0.072566 2.822000 -0.999083 -0 -0.0428178
-0.263860 -0.027833 1.169000 0.786863 0 0.617127
-0.258519 -0.027738 1.165000 0.789051 0 0.614328
-0.215609 -0.027929 1.173000 -0.983523 -0 -0.180781
-0.209700 -0.027738 1.165000 0.908737 0 0.417369
-0.206769 -0.027643 1.161000 0.806586 0 0.591117
-0.203852 -0.027548 1.157000 0.808056 0 0.589106
-0.198755 -0.027452 1.153000 0.695561 -0.524858 0.490631
-0.196048 -0.027381 1.150000 0.742357 0 0.670005
-0.193183 -0.027286 1.146000 0.813 0 0.582264
-0.190333 -0.027190 1.142000 0.814469 0 0.580207
-0.184680 -0.027000 1.134000 0.917077 0 0.398711
-0.175574 -0.026929 1.131000 0.75248 0 0.658615
-0.166367 -0.026833 1.127000 0.82455 0 0.565789
-0.131551 -0.026738 1.123000 0.83698 0 0.547234
-0.129873 -0.026833 1.127000 -0.680951 -0.680951 0.269466
-0.123871 -0.026929 1.131000 -0.679993 -0.679994 0.274258
-0.113400 -0.027000 1.134000 -0.850618 0 0.525784
-0.109465 -0.027095 1.138000 -0.91403 0 0.405646
-0.107674 -0.027190 1.142000 -0.677344 -0.677345 0.28707
-0.101503 -0.027286 1.146000 -0.910132 0 0.414319
-0.097476 -0.027381 1.150000 -0.90816 0 0.418624
-0.093662 -0.027548 1.157000 -0.974133 0 0.225973
-0.091774 -0.027643 1.161000 -0.904363 0 0.426764
-0.089871 -0.027738 1.165000 -0.903025 0 0.429587
-0.085727 -0.027833 1.169000 -0.901023 0 0.433771
-0.081551 -0.027929 1.173000 -0.671961 -0.671961 0.311348
-0.072367 -0.027833 1.169000 0.849719 0 0.527236
-0.263860 -0.025607 1.169000 0.786863 0 0.617127
-0.258519 -0.025519 1.165000 0.789051 0 0.614328
-0.214138 -0.025519 1.165000 -0.983523 5.36648e-06 -0.180781
-0.204557 -0.025431 1.161000 0.630381 -0.634758 0.44688
-0.201649 -0.025344 1.157000 0.808789 0 0.588099
-0.196048 -0.025190 1.150000 0.899651 0 0.436609
-0.193183 -0.025103 1.146000 0.813 0 0.582264
-0.190333 -0.025015 1.142000 0.814469 0 0.580207
-0.184680 -0.024840 1.134000 0.917077 0 0.398711
-0.175574 -0.024774 1.131000 0.75248 0 0.658615
-0.164220 -0.024687 1.127000 0.825282 0 0.564721
-0.126026 -0.024774 1.131000 -0.679995 -0.679993 0.274257
-0.115560 -0.024840 1.134000 -0.651883 -0.651885 0.387421
-0.109465 -0.024928 1.138000 -0.91403 0 0.405646
-0.105499 -0.025015 1.142000 -0.912082 0 0.410009
-0.101503 -0.025103 1.146000 -0.910132 0 0.414319
-0.097476 -0.025190 1.150000 -0.90816 0 0.418624
-0.093662 -0.025344 1.157000 -0.974133 0 0.225973
-0.091774 -0.025431 1.161000 -0.904363 0 0.426764
-0.087652 -0.025519 1.165000 -0.902357 0 0.430989
-0.085727 -0.025607 1.169000 -0.901023 0 0.433771
-0.081551 -0.025694 1.173000 -0.899 0 0.437949
-0.072367 -0.025607 1.169000 0.849719 0 0.527236
-0.126318 -0.061815 2.822000 -0.999 -0 -0.0447171
-0.261633 -0.023380 1.169000 0.787586 0 0.616204
-0.256300 -0.023300 1.165000 0.789781 0 0.613389
-0.211919 -0.023300 1.165000 -0.983855 -0 -0.178968
-0.204557 -0.023220 1.161000 0.807318 0 0.590117
-0.201649 -0.023140 1.157000 0.808789 0 0.588099
-0.196048 -0.023000 1.150000 0.899651 0 0.436609
-0.193183 -0.022920 1.146000 0.813 0 0.582264
-0.188158 -0.022840 1.142000 0.815204 0 0.579173
-0.185331 -0.022760 1.138000 0.634293 -0.638784 0.435463
-0.182520 -0.022680 1.134000 0.818137 0 0.575024
-0.173420 -0.022620 1.131000 0.753188 0 0.657805
-0.155633 -0.022540 1.127000 0.828211 0 0.560416
-0.130334 -0.022620 1.131000 -0.680236 -0.680234 0.27306
-0.117720 -0.022680 1.134000 -0.651884 -0.651883 0.387422
-0.109465 -0.022760 1.138000 -0.91403 0 0.405646
-0.103324 -0.022840 1.142000 -0.911432 0 0.411452
-0.101503 -0.022920 1.146000 -0.910132 0 0.414319
-0.097476 -0.023000 1.150000 -0.90816 0 0.418624
-0.095534 -0.023060 1.153000 -0.646371 -0.646374 0.405468
-0.093662 -0.023140 1.157000 -0.905684 0 0.423952
-0.091774 -0.023220 1.161000 -0.904363 0 0.426764
-0.087652 -0.023300 1.165000 -0.902357 0 0.430989
-0.085727 -0.023380 1.169000 -0.901023 0 0.433771
-0.081551 -0.023460 1.173000 -0.899 0 0.437949
-0.077346 -0.023540 1.177000 -0.670616 -0.670614 0.317098
-0.072614 -0.023460 1.173000 0.6487 -0.65312 0.39067
-0.126318 -0.056440 2.822000 -0.999 -0 -0.0447171
-0.259407 -0.021153 1.169000 0.788319 0 0.615267
-0.254081 -0.021081 1.165000 0.790511 0 0.612448
-0.211919 -0.021081 1.165000 -0.983855 -0 -0.178968
-0.202346 -0.021009 1.161000 0.630036 -0.634415 0.447852
-0.199445 -0.020936 1.157000 0.809523 0 0.587088
-0.196559 -0.020864 1.153000 0.69499 -0.524425 0.491902
-0.193857 -0.020810 1.150000 0.529444 -0.71022 0.463979
-0.191000 -0.020737 1.146000 0.813729 0 0.581244
-0.188158 -0.020665 1.142000 0.815204 0 0.579173
-0.185331 -0.020592 1.138000 0.816663 0 0.577115
-0.180360 -0.020520 1.134000 0.818868 0 0.573982
-0.169111 -0.020466 1.131000 0.754613 0 0.65617
-0.153487 -0.020393 1.127000 0.828943 0 0.559333
-0.147569 -0.020466 1.131000 -0.681898 -0.681897 0.264635
-0.144900 -0.020393 1.127000 0.83187 0 0.554971
-0.141106 -0.020466 1.131000 -0.681191 -0.68119 0.268251
-0.119880 -0.020520 1.134000 -0.651884 -0.651883 0.387421
-0.111632 -0.020592 1.138000 -0.677347 -0.677346 0.287059
-0.103324 -0.020665 1.142000 -0.911432 0 0.411452
-0.101503 -0.020737 1.146000 -0.910132 0 0.414319
-0.099667 -0.020810 1.150000 -0.675053 -0.675053 0.29767
-0.095534 -0.020864 1.153000 -0.839478 0 0.543394
-0.093662 -0.020936 1.157000 -0.905684 0 0.423953
-0.091774 -0.021009 1.161000 -0.904363 0 0.426764
-0.087652 -0.021081 1.165000 -0.902357 0 0.430989
-0.085727 -0.021153 1.169000 -0.901023 0 0.433771
-0.081551 -0.021226 1.173000 -0.899 0 0.437949
-0.079588 -0.021298 1.177000 -0.670615 -0.670615 0.317098
-0.126318 -0.051065 2.822000 -0.999 -0 -0.0447171
-0.121929 -0.051481 2.845000 -0.701889 -0.70189 0.121254
-0.257180 -0.018927 1.169000 0.789045 0 0.614335
-0.212647 -0.018927 1.169000 -0.983855 3.42186e-06 -0.178968
-0.205262 -0.018862 1.165000 0.806591 0 0.59111
-0.202346 -0.018797 1.161000 0.80805 0 0.589114
-0.199445 -0.018732 1.157000 0.809523 0 0.587088
-0.196559 -0.018668 1.153000 0.810981 0 0.585072
-0.193857 -0.018619 1.150000 0.743063 0 0.669221
-0.188817 -0.018554 1.146000 0.632629 -0.637074 0.440361
-0.185983 -0.018490 1.142000 0.633307 -0.637743 0.438413
-0.183164 -0.018425 1.138000 0.817397 0 0.576074
-0.178200 -0.018360 1.134000 0.819602 0 0.572934
-0.166957 -0.018311 1.131000 0.755324 0 0.655352
-0.144900 -0.018247 1.127000 0.83187 0 0.554971
-0.143260 -0.018311 1.131000 -0.681189 -0.681192 0.268253
-0.119880 -0.018360 1.134000 -0.85279 0 0.522254
-0.111632 -0.018425 1.138000 -0.914675 0 0.404189
-0.103324 -0.018490 1.142000 -0.911432 0 0.411452
-0.101503 -0.018554 1.146000 -0.910132 0 0.414319
-0.099667 -0.018619 1.150000 -0.908817 0 0.417195
-0.095534 -0.018668 1.153000 -0.839478 0 0.543394
-0.093662 -0.018732 1.157000 -0.905684 0 0.423953
-0.091774 -0.018797 1.161000 -0.904363 0 0.426764
-0.087652 -0.018862 1.165000 -0.902357 0 0.430989
-0.083500 -0.018927 1.169000 -0.900353 0 0.435161
-0.081551 -0.018991 1.173000 -0.899 0 0.437949
-0.077346 -0.019056 1.177000 -0.896979 0 0.442072
-0.127348 -0.046062 2.845000 -0.999 5.01926e-07 -0.0447171
-0.265666 -0.016814 1.177000 -0.689828 -0.689816 0.219754
-0.260294 -0.016757 1.173000 0.787598 0 0.616189
-0.257180 -0.016700 1.169000 0.789045 0 0.614335
-0.213374 -0.016757 1.173000 -0.983855 4.16592e-07 -0.178968
-0.208193 -0.016700 1.169000 0.805122 0 0.59311
-0.205262 -0.016643 1.165000 0.806591 0 0.59111
-0.202346 -0.016586 1.161000 0.80805 0 0.589114
-0.199445 -0.016529 1.157000 0.809523 0 0.587088
-0.194363 -0.016471 1.153000 0.694756 -0.524257 0.492411
-0.191667 -0.016429 1.150000 0.743766 0 0.66844
-0.188817 -0.016371 1.146000 0.814465 0 0.580213
-0.183808 -0.016314 1.142000 0.633305 -0.637741 0.438419
-0.180996 -0.016257 1.138000 0.81813 0 0.575033
-0.176040 -0.016200 1.134000 0.820334 0 0.571884
-0.162649 -0.016157 1.131000 0.756747 0 0.653708
-0.144900 -0.016100 1.127000 0.83187 0 0.554971
-0.141106 -0.016157 1.131000 -0.924637 0 0.38085
-0.122040 -0.016200 1.134000 -0.651571 -0.65157 0.388475
-0.111632 -0.016257 1.138000 -0.914675 0 0.404189
-0.103324 -0.016314 1.142000 -0.911432 0 0.411452
-0.101503 -0.016371 1.146000 -0.910132 0 0.414319
-0.099667 -0.016429 1.150000 -0.908817 0 0.417195
-0.095534 -0.016471 1.153000 -0.839478 0 0.543394
-0.093662 -0.016529 1.157000 -0.905684 0 0.423952
-0.089563 -0.016586 1.161000 -0.903697 0 0.428174
-0.085433 -0.016643 1.165000 -0.901687 0 0.432389
-0.081273 -0.016700 1.169000 -0.668787 0.664203 0.334003
-0.079317 -0.016757 1.173000 -0.898325 0 0.439332
-0.077346 -0.016814 1.177000 -0.896979 0 0.442072
-0.121929 -0.040643 2.845000 -0.999083 -0 -0.0428178
-0.258060 -0.014523 1.173000 0.619756 -0.623981 0.475972
-0.213374 -0.014523 1.173000 -0.983855 -0 -0.178968
-0.208193 -0.014473 1.169000 0.805122 0 0.59311
-0.205262 -0.014424 1.165000 0.806591 0 0.59111
-0.202346 -0.014374 1.161000 0.80805 0 0.589114
-0.197241 -0.014325 1.157000 0.810255 0 0.586077
-0.194363 -0.014275 1.153000 0.811714 0 0.584056
-0.191667 -0.014238 1.150000 0.743766 0 0.66844
-0.186634 -0.014189 1.146000 0.815196 0 0.579185
-0.183808 -0.014139 1.142000 0.81667 0 0.577105
-0.178829 -0.014090 1.138000 0.818864 0 0.573988
-0.173880 -0.014040 1.134000 0.821068 0 0.57083
-0.160494 -0.014003 1.131000 0.757463 0 0.652878
-0.147047 -0.013953 1.127000 0.637018 0.637015 0.434074
-0.141106 -0.014003 1.131000 -0.924637 0 0.38085
-0.124200 -0.014040 1.134000 -0.651569 -0.65157 0.388476
-0.113800 -0.014090 1.138000 -0.676842 -0.676844 0.289425
-0.103324 -0.014139 1.142000 -0.911432 0 0.411452
-0.101503 -0.014189 1.146000 -0.910132 0 0.414319
-0.099667 -0.014238 1.150000 -0.908817 0 0.417195
-0.095534 -0.014275 1.153000 -0.839478 0 0.543394
-0.093662 -0.014325 1.157000 -0.905684 0 0.423953
-0.091774 -0.014374 1.161000 -0.672499 -0.672496 0.309023
-0.085433 -0.014424 1.165000 -0.901687 0 0.432389
-0.081273 -0.014473 1.169000 -0.89968 0 0.43655
-0.111090 -0.035224 2.845000 -0.999238 -0 -0.0390179
-0.258060 -0.012289 1.173000 0.788325 0 0.61526
-0.214102 -0.012330 1.177000 -0.983855 3.35364e-06 -0.178968
-0.208193 -0.012247 1.169000 0.909066 0 0.416653
-0.205262 -0.012205 1.165000 0.806591 0 0.59111
-0.202346 -0.012163 1.161000 0.80805 0 0.589114
-0.197241 -0.012121 1.157000 0.810255 0 0.586077
-0.194363 -0.012079 1.153000 0.811714 0 0.584056
-0.189476 -0.012048 1.150000 0.744472 0 0.667654
-0.184451 -0.012006 1.146000 0.632287 -0.636727 0.441352
-0.181632 -0.011964 1.142000 0.817401 0 0.576069
-0.176661 -0.011922 1.138000 0.819595 0 0.572943
-0.171720 -0.011880 1.134000 0.8218 0 0.569777
-0.158340 -0.011849 1.131000 0.758176 0 0.65205
-0.147047 -0.011807 1.127000 0.83114 0 0.556063
-0.141106 -0.011849 1.131000 -0.924637 0 0.38085
-0.128520 -0.011880 1.134000 -0.651884 -0.651885 0.387419
-0.113800 -0.011922 1.138000 -0.915318 0 0.402733
-0.105499 -0.011964 1.142000 -0.675311 -0.67531 0.296498
-0.103686 -0.012006 1.146000 -0.674797 -0.674795 0.298833
-0.101857 -0.012048 1.150000 -0.674274 -0.674274 0.30118
-0.097730 -0.012079 1.153000 -0.645078 -0.645078 0.409572
-0.095866 -0.012121 1.157000 -0.673026 -0.673026 0.306711
-0.091774 -0.012163 1.161000 -0.904363 0 0.426764
-0.085433 -0.012205 1.165000 -0.901687 0 0.432389
-0.081273 -0.012247 1.169000 -0.89968 0 0.43655
-0.265666 -0.010089 1.177000 0.785403 0 0.618984
-0.260294 -0.010054 1.173000 0.617145 0.617146 0.488122
-0.213374 -0.010054 1.173000 -0.983855 -3.37542e-06 -0.178968
-0.208193 -0.010020 1.169000 0.805122 0 0.59311
-0.205262 -0.009986 1.165000 0.806591 0 0.59111
-0.202346 -0.009951 1.161000 0.80805 0 0.589114
-0.197241 -0.009917 1.157000 0.810255 0 0.586077
-0.194363 -0.009883 1.153000 0.811714 0 0.584056
-0.189476 -0.009857 1.150000 0.744472 0 0.667654
-0.184451 -0.009823 1.146000 0.815932 0 0.578148
-0.179457 -0.009789 1.142000 0.818137 0 0.575024
-0.174493 -0.009754 1.138000 0.820329 0 0.571891
-0.169560 -0.009720 1.134000 0.822535 0 0.568715
-0.158340 -0.009694 1.131000 0.758176 0 0.65205
-0.144900 -0.009660 1.127000 0.83187 0 0.554971
-0.143260 -0.009694 1.131000 -0.680233 -0.680236 0.273059
-0.130680 -0.009720 1.134000 -0.651883 -0.651885 0.38742
-0.120303 -0.009754 1.138000 -0.677094 -0.677096 0.288243
-0.114200 -0.009789 1.142000 -0.676079 -0.67608 0.292972
-0.103686 -0.009823 1.146000 -0.910785 0 0.412881
-0.101857 -0.009857 1.150000 -0.909472 0 0.415765
-0.097730 -0.009883 1.153000 -0.840207 0 0.542265
-0.095866 -0.009917 1.157000 -0.906346 0 0.422535
-0.091774 -0.009951 1.161000 -0.904363 0 0.426764
-0.085433 -0.009986 1.165000 -0.901687 0 0.432389
-0.083500 -0.010020 1.169000 -0.670344 -0.670342 0.318246
-0.079317 -0.010054 1.173000 -0.669519 -0.669521 0.321694
-0.075104 -0.010089 1.177000 -0.436213 -0.875399 0.208314
-0.213374 -0.007820 1.173000 -0.983855 -0 -0.178968
-0.208193 -0.007793 1.169000 0.805122 0 0.59311
-0.205262 -0.007767 1.165000 0.806591 0 0.59111
-0.200134 -0.007740 1.161000 0.808784 0 0.588106
-0.195037 -0.007713 1.157000 0.629357 -0.633706 0.449806
-0.192167 -0.007687 1.153000 0.812448 0 0.583034
-0.189476 -0.007667 1.150000 0.744472 0 0.667654
-0.184451 -0.007640 1.146000 0.815932 0 0.578148
-0.179457 -0.007613 1.142000 0.818137 0 0.575024
-0.174493 -0.007587 1.138000 0.820329 0 0.571891
-0.169560 -0.007560 1.134000 0.822535 0 0.568715
-0.158340 -0.007540 1.131000 0.758176 0 0.65205
-0.132840 -0.007560 1.134000 -0.651886 -0.651882 0.38742
-0.122470 -0.007587 1.138000 -0.677097 -0.677094 0.288244
-0.116375 -0.007613 1.142000 -0.676079 -0.67608 0.292973
-0.112417 -0.007640 1.146000 -0.675313 -0.675312 0.296488
-0.101857 -0.007667 1.150000 -0.909472 0 0.415765
-0.095534 -0.007687 1.153000 -0.560174 0.74237 0.367549
-0.093662 -0.007713 1.157000 -0.905684 0 0.423952
-0.091774 -0.007740 1.161000 -0.904363 0 0.426764
-0.085433 -0.007767 1.165000 -0.901687 0 0.432389
-0.083500 -0.007793 1.169000 -0.900353 0 0.435161
-0.081551 -0.007820 1.173000 -0.66952 -0.66952 0.321694
-0.077346 -0.007847 1.177000 -0.668696 -0.668694 0.325106
-0.213374 -0.005586 1.173000 -0.983855 -0 -0.178968
-0.208193 -0.005567 1.169000 0.805122 0 0.59311
-0.205262 -0.005548 1.165000 0.806591 0 0.59111
-0.197923 -0.005529 1.161000 0.809516 0 0.587098
-0.195037 -0.005510 1.157000 0.810988 0 0.585063
-0.192167 -0.005490 1.153000 0.812448 0 0.583034
-0.189476 -0.005476 1.150000 0.744472 0 0.667654
-0.182269 -0.005457 1.146000 0.816663 0 0.577115
-0.179457 -0.005438 1.142000 0.818137 0 0.575024
-0.172326 -0.005419 1.138000 0.821062 0 0.570839
-0.167400 -0.005400 1.134000 0.823267 0 0.567654
-0.158340 -0.005386 1.131000 0.758176 0 0.65205
-0.135000 -0.005400 1.134000 -0.651884 -0.651886 0.387418
-0.122470 -0.005419 1.138000 -0.917877 0 0.396865
-0.116375 -0.005438 1.142000 -0.915313 0 0.402744
-0.114600 -0.005457 1.146000 -0.675313 -0.675312 0.296488
-0.097476 -0.005476 1.150000 -0.90816 0 0.418624
-0.095534 -0.005490 1.153000 -0.839478 0 0.543394
-0.091458 -0.005510 1.157000 -0.672416 0.667799 0.319219
-0.089563 -0.005529 1.161000 -0.903697 0 0.428174
-0.085433 -0.005548 1.165000 -0.901687 0 0.432389
-0.083500 -0.005567 1.169000 -0.900353 0 0.435161
-0.081551 -0.005586 1.173000 -0.899 0 0.437949
-0.079588 -0.005605 1.177000 -0.668695 -0.668695 0.325106
-0.211140 -0.003351 1.173000 -0.984183 -0 -0.177153
-0.208193 -0.003340 1.169000 0.805122 0 0.59311
-0.205262 -0.003329 1.165000 0.806591 0 0.59111
-0.197923 -0.003317 1.161000 0.809516 0 0.587098
-0.195037 -0.003306 1.157000 0.810988 0 0.585063
-0.192167 -0.003294 1.153000 0.812448 0 0.583034
-0.189476 -0.003286 1.150000 0.744472 0 0.667654
-0.182269 -0.003274 1.146000 0.816663 0 0.577115
-0.179457 -0.003263 1.142000 0.818137 0 0.575024
-0.172326 -0.003251 1.138000 0.821062 0 0.570839
-0.167400 -0.003240 1.134000 0.823267 0 0.567654
-0.156186 -0.003231 1.131000 0.758891 0 0.651217
-0.135000 -0.003240 1.134000 -0.857846 0 0.513907
-0.124638 -0.003251 1.138000 -0.676841 -0.676845 0.289426
-0.118550 -0.003263 1.142000 -0.675824 -0.675824 0.294149
-0.114600 -0.003274 1.146000 -0.91403 0 0.405646
-0.097476 -0.003286 1.150000 -0.90816 0 0.418624
-0.093338 -0.003294 1.153000 -0.83875 0 0.544516
-0.089563 -0.003317 1.161000 -0.981072 0 0.193644
-0.085433 -0.003329 1.165000 -0.901687 0 0.432389
-0.083786 -0.003351 1.173000 -0.880412 -0.438691 0.180069
-0.079588 -0.003363 1.177000 -0.897656 0 0.440697
-0.211140 -0.001117 1.173000 -0.984183 -0 -0.177153
-0.205967 -0.001113 1.169000 0.625938 -0.630259 0.459321
-0.203043 -0.001110 1.165000 0.807325 0 0.590107
-0.197923 -0.001106 1.161000 0.809516 0 0.587098
-0.195037 -0.001102 1.157000 0.810988 0 0.585063
-0.192167 -0.001098 1.153000 0.812448 0 0.583034
-0.189476 -0.001095 1.150000 0.744472 0 0.667654
-0.182269 -0.001091 1.146000 0.816663 0 0.577115
-0.179457 -0.001088 1.142000 0.818137 0 0.575024
-0.170158 -0.001084 1.138000 0.821794 0 0.569784
-0.165240 -0.001080 1.134000 0.824001 0 0.566588
-0.156186 -0.001077 1.131000 0.758891 0 0.651217
-0.135000 -0.001080 1.134000 -0.857846 0 0.513907
-0.126806 -0.001084 1.138000 -0.676843 -0.676842 0.289427
-0.120726 -0.001088 1.142000 -0.675825 -0.675823 0.294149
-0.114600 -0.001091 1.146000 -0.91403 0 0.405646
-0.097476 -0.001095 1.150000 -0.90816 0 0.418624
-0.093338 -0.001098 1.153000 -0.83875 0 0.544516
-0.091458 -0.001102 1.157000 -0.671154 -0.671155 0.314807
-0.089563 -0.001106 1.161000 -0.903697 0 0.428174
-0.087652 -0.001110 1.165000 -0.670069 -0.670067 0.319404
-0.085727 -0.001113 1.169000 -0.669522 -0.669523 0.321684
-0.083786 -0.001117 1.173000 -0.899674 0 0.436562
-0.079588 -0.001121 1.177000 -0.897656 0 0.440697
-0.211140 0.001117 1.173000 -0.984183 -0 -0.177153
-0.205967 0.001113 1.169000 0.805852 0 0.592117
-0.203043 0.001110 1.165000 0.807325 0 0.590107
-0.197923 0.001106 1.161000 0.809516 0 0.587098
-0.195037 0.001102 1.157000 0.810988 0 0.585063
-0.192167 0.001098 1.153000 0.812448 0 0.583034
-0.187286 0.001095 1.150000 0.745176 0 0.666868
-0.182269 0.001091 1.146000 0.816663 0 0.577115
-0.179457 0.001088 1.142000 0.818137 0 0.575024
-0.170158 0.001084 1.138000 0.821794 0 0.569784
-0.160920 0.001080 1.134000 0.825466 0 0.564453
-0.151877 0.001077 1.131000 0.760321 0 0.649547
-0.137160 0.001080 1.134000 -0.651255 -0.651256 0.389529
-0.128973 0.001084 1.138000 -0.676843 -0.676843 0.289425
-0.122901 0.001088 1.142000 -0.675824 -0.675824 0.294149
-0.116783 0.001091 1.146000 -0.674796 -0.674797 0.298832
-0.097476 0.001095 1.150000 -0.90816 0 0.418624
-0.095534 0.001098 1.153000 -0.642793 -0.642795 0.416691
-0.091458 0.001102 1.157000 -0.905022 0 0.425365
-0.089563 0.001106 1.161000 -0.903697 0 0.428174
-0.087652 0.001110 1.165000 -0.902357 0 0.430989
-0.085727 0.001113 1.169000 -0.901023 0 0.433771
-0.083786 0.001117 1.173000 -0.899674 0 0.436562
-0.079588 0.001121 1.177000 -0.897656 0 0.440697
-0.211140 0.003351 1.173000 -0.984183 -0 -0.177153
-0.205967 0.003340 1.169000 0.805852 0 0.592117
-0.200824 0.003329 1.165000 0.808057 0 0.589104
-0.197923 0.003317 1.161000 0.809516 0 0.587098
-0.192833 0.003306 1.157000 0.627985 -0.632324 0.453652
-0.189970 0.003294 1.153000 0.81318 0 0.582012
-0.185095 0.003286 1.150000 0.745881 0 0.666079
-0.182269 0.003274 1.146000 0.816663 0 0.577115
-0.179457 0.003263 1.142000 0.818137 0 0.575024
-0.170158 0.003251 1.138000 0.821794 0 0.569784
-0.158760 0.003240 1.134000 0.826199 0 0.563378
-0.143260 0.003231 1.131000 0.763184 0 0.646181
-0.139320 0.003240 1.134000 -0.651255 -0.651257 0.389528
-0.128973 0.003251 1.138000 -0.919781 0 0.392432
-0.122901 0.003263 1.142000 -0.917234 0 0.398348
-0.116783 0.003274 1.146000 -0.914675 0 0.404191
-0.097476 0.003286 1.150000 -0.90816 0 0.418624
-0.095534 0.003294 1.153000 -0.839478 0 0.543394
-0.091458 0.003306 1.157000 -0.905022 0 0.425365
-0.089563 0.003317 1.161000 -0.903697 0 0.428174
-0.087652 0.003329 1.165000 -0.902357 0 0.430989
-0.085727 0.003340 1.169000 -0.901023 0 0.433771
-0.083786 0.003351 1.173000 -0.899674 0 0.436562
-0.079588 0.003363 1.177000 -0.897656 0 0.440697
-0.268818 0.005624 1.181000 -0.948818 0 0.315823
-0.262957 0.005643 1.185000 -0.686931 -0.686935 0.237163
-0.259820 0.005624 1.181000 -2.22453e-07 -0.999989 0.0047618
-0.208906 0.005586 1.173000 -0.984509 -0 -0.175336
-0.203740 0.005567 1.169000 0.806586 0 0.591117
-0.200824 0.005548 1.165000 0.808057 0 0.589104
-0.195711 0.005529 1.161000 0.81025 0 0.586084
-0.192833 0.005510 1.157000 0.81172 0 0.584046
-0.187774 0.005490 1.153000 0.813914 0 0.580985
-0.185095 0.005476 1.150000 0.745881 0 0.666079
-0.182269 0.005457 1.146000 0.816663 0 0.577115
-0.177282 0.005438 1.142000 0.818869 0 0.57398
-0.165823 0.005419 1.138000 0.823259 0 0.567665
-0.158760 0.005400 1.134000 0.826199 0 0.563378
-0.128973 0.005419 1.138000 -0.919781 0 0.392432
-0.122901 0.005438 1.142000 -0.917234 0 0.398348
-0.116783 0.005457 1.146000 -0.914675 0 0.404191
-0.097476 0.005476 1.150000 -0.90816 0 0.418624
-0.093338 0.005490 1.153000 -0.83875 0 0.544516
-0.091458 0.005510 1.157000 -0.905022 0 0.425365
-0.089563 0.005529 1.161000 -0.903697 0 0.428174
-0.087652 0.005548 1.165000 -0.902357 0 0.430989
-0.085727 0.005567 1.169000 -0.901023 0 0.433771
-0.081551 0.005586 1.173000 -0.899 0 0.437949
-0.077346 0.005605 1.177000 -0.896979 0 0.442072
-0.070860 0.005624 1.181000 -0.665886 -0.665888 0.336436
-0.068378 0.005605 1.177000 0.849719 0 0.527236
-0.267471 0.007900 1.185000 -0.687144 -0.687148 0.235924
-0.263845 0.007927 1.189000 -0.686508 -0.686506 0.239617
-0.206671 0.007820 1.173000 -0.984831 -0 -0.173518
-0.201513 0.007793 1.169000 0.625244 -0.629556 0.461225
-0.198605 0.007767 1.165000 0.808789 0 0.588099
-0.195711 0.007740 1.161000 0.81025 0 0.586084
-0.190630 0.007713 1.157000 0.812454 0 0.583025
-0.185578 0.007687 1.153000 0.692809 -0.522781 0.496704
-0.182905 0.007667 1.150000 0.526349 -0.706066 0.473738
-0.180086 0.007640 1.146000 0.817396 0 0.576077
-0.172931 0.007613 1.142000 0.820334 0 0.571884
-0.161488 0.007587 1.138000 0.824724 0 0.565535
-0.156600 0.007560 1.134000 0.826931 0 0.562303
-0.128973 0.007587 1.138000 -0.919781 0 0.392432
-0.125076 0.007613 1.142000 -0.675311 -0.675311 0.296496
-0.116783 0.007640 1.146000 -0.914675 0 0.404191
-0.097476 0.007667 1.150000 -0.90816 0 0.418624
-0.093338 0.007687 1.153000 -0.83875 0 0.544516
-0.091458 0.007713 1.157000 -0.905022 0 0.425365
-0.089563 0.007740 1.161000 -0.903697 0 0.428174
-0.087652 0.007767 1.165000 -0.902357 0 0.430989
-0.085727 0.007793 1.169000 -0.901023 0 0.433771
-0.081551 0.007820 1.173000 -0.899 0 0.437949
-0.077346 0.007847 1.177000 -0.896979 0 0.442072
-0.070860 0.007873 1.181000 -0.894254 0 0.44756
-0.267471 0.010157 1.185000 -0.947729 0 0.319076
-0.266110 0.010191 1.189000 -0.686503 -0.686511 0.239619
-0.260188 0.010226 1.193000 -0.68564 -0.685633 0.24455
-0.206671 0.010054 1.173000 -0.984831 -0 -0.173518
-0.201513 0.010020 1.169000 0.807318 0 0.590117
-0.198605 0.009986 1.165000 0.808789 0 0.588099
-0.195711 0.009951 1.161000 0.81025 0 0.586084
-0.188426 0.009917 1.157000 0.813187 0 0.582002
-0.182905 0.009857 1.150000 0.90367 0 0.428229
-0.180086 0.009823 1.146000 0.817396 0 0.576077
-0.168581 0.009789 1.142000 0.821802 0 0.569773
-0.159320 0.009754 1.138000 0.825459 0 0.564462
-0.156600 0.009720 1.134000 0.826931 0 0.562303
-0.131141 0.009754 1.138000 -0.676082 -0.676081 0.292964
-0.125076 0.009789 1.142000 -0.917873 0 0.396875
-0.116783 0.009823 1.146000 -0.914675 0 0.404191
-0.097476 0.009857 1.150000 -0.90816 0 0.418624
-0.095534 0.009883 1.153000 -0.641477 -0.64148 0.420726
-0.093662 0.009917 1.157000 -0.670068 -0.670067 0.319404
-0.091774 0.009951 1.161000 -0.669523 -0.669521 0.321684
-0.089871 0.009986 1.165000 -0.668969 -0.668969 0.323976
-0.085727 0.010020 1.169000 -0.901023 0 0.433771
-0.081551 0.010054 1.173000 -0.899 0 0.437949
-0.077346 0.010089 1.177000 -0.896979 0 0.442072
-0.070860 0.010123 1.181000 -0.894254 0 0.44756
-0.268374 0.012456 1.189000 -0.686508 -0.686506 0.239618
-0.262460 0.012498 1.193000 -0.685636 -0.685637 0.244552
-0.206671 0.012289 1.173000 -0.984831 -0 -0.173518
-0.198605 0.012205 1.165000 0.912002 0 0.410185
-0.195711 0.012163 1.161000 0.81025 0 0.586084
-0.188426 0.012121 1.157000 0.813187 0 0.582002
-0.183382 0.012079 1.153000 0.692576 -0.522609 0.49721
-0.180714 0.012048 1.150000 0.525926 -0.705503 0.475044
-0.177903 0.012006 1.146000 0.81813 0 0.575033
-0.166406 0.011964 1.142000 0.822533 0 0.568717
-0.159320 0.011922 1.138000 0.825459 0 0.564462
-0.154440 0.011880 1.134000 0.827663 0 0.561225
-0.133309 0.011922 1.138000 -0.67608 -0.676084 0.292963
-0.125076 0.011964 1.142000 -0.917873 0 0.396875
-0.118966 0.012006 1.146000 -0.673753 -0.673752 0.303503
-0.097476 0.012048 1.150000 -0.90816 0 0.418624
-0.095534 0.012079 1.153000 -0.839478 0 0.543394
-0.093662 0.012121 1.157000 -0.905684 0 0.423953
-0.091774 0.012163 1.161000 -0.904363 0 0.426764
-0.089871 0.012205 1.165000 -0.903025 0 0.429587
-0.085727 0.012247 1.169000 -0.901023 0 0.433771
-0.083786 0.012289 1.173000 -0.6673 -0.667297 0.330794
-0.077346 0.012330 1.177000 -0.896979 0 0.442072
-0.075359 0.012372 1.181000 -0.665602 -0.665603 0.337561
-0.068843 0.012414 1.185000 -0.664457 -0.664457 0.342043
-0.264732 0.014770 1.193000 -0.685636 -0.685638 0.24455
-0.204437 0.014523 1.173000 -0.98515 -0 -0.171698
-0.199287 0.014473 1.169000 0.624549 -0.628857 0.463117
-0.196386 0.014424 1.165000 0.625246 -0.629542 0.461242
-0.193500 0.014374 1.161000 0.810982 0 0.58507
-0.188426 0.014325 1.157000 0.813187 0 0.582002
-0.183382 0.014275 1.153000 0.81538 0 0.578927
-0.178524 0.014238 1.150000 0.525842 -0.705388 0.475309
-0.175720 0.014189 1.146000 0.818863 0 0.57399
-0.164230 0.014139 1.142000 0.823269 0 0.567652
-0.159320 0.014090 1.138000 0.825459 0 0.564462
-0.152280 0.014040 1.134000 0.828395 0 0.560145
-0.137644 0.014090 1.138000 -0.676334 -0.676338 0.291785
-0.127251 0.014139 1.142000 -0.674793 -0.674795 0.29884
-0.121149 0.014189 1.146000 -0.673753 -0.673752 0.303503
-0.099667 0.014238 1.150000 -0.670816 -0.670816 0.316246
-0.095534 0.014275 1.153000 -0.839478 0 0.543394
-0.093662 0.014325 1.157000 -0.905684 0 0.423952
-0.091774 0.014374 1.161000 -0.904363 0 0.426764
-0.089871 0.014424 1.165000 -0.903025 0 0.429587
-0.087953 0.014473 1.169000 -0.66786 -0.667861 0.328518
-0.083786 0.014523 1.173000 -0.899674 0 0.436562
-0.079588 0.014572 1.177000 -0.666173 -0.666174 0.3353
-0.075359 0.014622 1.181000 -0.895615 0 0.44483
-0.071100 0.014671 1.185000 -0.664457 -0.664458 0.342042
-0.066810 0.014721 1.189000 -0.663593 -0.663595 0.345378
-0.064329 0.014671 1.185000 -1.30124e-07 -0.999923 0.01238
-0.267005 0.017043 1.193000 -0.685636 -0.685638 0.244549
-0.204437 0.016757 1.173000 -0.98515 -0 -0.171698
-0.199287 0.016700 1.169000 0.80805 0 0.589114
-0.196386 0.016643 1.165000 0.809522 0 0.58709
-0.193500 0.016586 1.161000 0.810982 0 0.58507
-0.186222 0.016529 1.157000 0.81392 0 0.580977
-0.181186 0.016471 1.153000 0.816112 0 0.577893
-0.178524 0.016429 1.150000 0.748002 0 0.663697
-0.173537 0.016371 1.146000 0.819597 0 0.572941
-0.162055 0.016314 1.142000 0.823998 0 0.566592
-0.157152 0.016257 1.138000 0.82619 0 0.563392
-0.127251 0.016314 1.142000 -0.918509 0 0.395401
-0.121149 0.016371 1.146000 -0.91596 0 0.401268
-0.108429 0.016429 1.150000 -0.671626 -0.671625 0.312791
-0.095534 0.016471 1.153000 -0.839478 0 0.543394
-0.093662 0.016529 1.157000 -0.905684 0 0.423953
-0.091774 0.016586 1.161000 -0.904363 0 0.426764
-0.089871 0.016643 1.165000 -0.903025 0 0.429587
-0.087953 0.016700 1.169000 -0.901694 0 0.432376
-0.083786 0.016757 1.173000 -0.899674 0 0.436562
-0.081830 0.016814 1.177000 -0.666173 -0.666174 0.335301
-0.075359 0.016871 1.181000 -0.895615 0 0.44483
-0.071100 0.016929 1.185000 -0.893572 0 0.44892
-0.069075 0.016986 1.189000 -0.663593 -0.663594 0.345379
-0.064763 0.017043 1.193000 -0.43358 -0.870099 0.234385
-0.062281 0.016986 1.189000 -4.57755e-08 -0.999898 0.0142843
-0.054276 0.019857 1.390000 5.82635e-07 -0.999898 0.0142843
-0.204437 0.018991 1.173000 -0.98515 -0 -0.171698
-0.199287 0.018927 1.169000 0.80805 0 0.589114
-0.196386 0.018862 1.165000 0.809522 0 0.58709
-0.191289 0.018797 1.161000 0.811715 0 0.584054
-0.186222 0.018732 1.157000 0.81392 0 0.580977
-0.181186 0.018668 1.153000 0.816112 0 0.577893
-0.178524 0.018619 1.150000 0.748002 0 0.663697
-0.173537 0.018554 1.146000 0.819597 0 0.572941
-0.159880 0.018490 1.142000 0.824733 0 0.565522
-0.152817 0.018425 1.138000 0.827655 0 0.561237
-0.127251 0.018490 1.142000 -0.918509 0 0.395401
-0.121149 0.018554 1.146000 -0.91596 0 0.401268
-0.110619 0.018619 1.150000 -0.671625 -0.671625 0.312792
-0.095534 0.018668 1.153000 -0.839478 0 0.543394
-0.091774 0.018797 1.161000 -0.981425 0 0.191845
-0.089871 0.018862 1.165000 -0.903025 0 0.429587
-0.087953 0.018927 1.169000 -0.901694 0 0.432376
-0.086020 0.018991 1.173000 -0.666735 -0.666737 0.333055
-0.081830 0.019056 1.177000 -0.898331 0 0.439319
-0.075359 0.019121 1.181000 -0.895615 0 0.44483
-0.069075 0.019250 1.189000 -0.976006 0 0.217742
-0.062490 0.019315 1.193000 -0.662135 -0.662134 0.350936
-0.070162 0.022505 1.390000 -5.89626e-07 -0.999869 0.0161883
-0.067806 0.022602 1.396000 -3.77915e-07 -0.999869 0.0161883
-0.256500 0.021660 1.197000 -0.683854 -0.683859 0.254322
-0.205134 0.021298 1.177000 -0.98515 1.70083e-06 -0.171698
-0.199969 0.021226 1.173000 0.623187 -0.627433 0.466867
-0.196386 0.021081 1.165000 0.912652 0 0.408738
-0.191289 0.021009 1.161000 0.811715 0 0.584054
-0.186222 0.020936 1.157000 0.81392 0 0.580977
-0.181186 0.020864 1.153000 0.816112 0 0.577893
-0.178524 0.020810 1.150000 0.748002 0 0.663697
-0.171354 0.020737 1.146000 0.820328 0 0.571894
-0.157705 0.020665 1.142000 0.825466 0 0.564453
-0.141979 0.020592 1.138000 0.831316 0 0.5558
-0.140303 0.020665 1.142000 -0.675566 -0.675569 0.295325
-0.135476 0.020592 1.138000 0.83351 0 0.552504
-0.127251 0.020665 1.142000 -0.918509 0 0.395401
-0.121149 0.020737 1.146000 -0.91596 0 0.401268
-0.112810 0.020810 1.150000 -0.671626 -0.671625 0.31279
-0.095534 0.020864 1.153000 -0.839478 0 0.543394
-0.091774 0.021009 1.161000 -0.981425 0 0.191845
-0.089871 0.021081 1.165000 -0.903025 0 0.429587
-0.087953 0.021153 1.169000 -0.901694 0 0.432376
-0.086020 0.021226 1.173000 -0.900347 0 0.435174
-0.084071 0.021298 1.177000 -0.665889 -0.66589 0.336427
-0.075359 0.021370 1.181000 -0.895615 0 0.44483
-0.069075 0.021515 1.189000 -0.976006 0 0.217742
-0.064763 0.021588 1.193000 -0.662135 -0.662134 0.350936
-0.072810 0.025152 1.390000 -0.707016 -0.707015 -0.0160852
-0.067806 0.025261 1.396000 -0.930803 0 0.365522
-0.271550 0.023860 1.193000 0.78178 0 0.623554
-0.258780 0.023940 1.197000 -0.683859 -0.683855 0.254322
-0.257571 0.024040 1.202000 -0.695301 -0.6953 0.181971
-0.256131 0.024120 1.206000 -0.399389 -0.902385 0.161832
-0.251940 0.023940 1.197000 -6.82565e-07 -0.9998 0.0199959
-0.199969 0.023460 1.173000 0.807325 0 0.590107
-0.197060 0.023380 1.169000 0.623508 -0.627804 0.465939
-0.194167 0.023300 1.165000 0.810255 0 0.586077
-0.191289 0.023220 1.161000 0.811715 0 0.584054
-0.186222 0.023140 1.157000 0.81392 0 0.580977
-0.181186 0.023060 1.153000 0.816112 0 0.577893
-0.178524 0.023000 1.150000 0.748002 0 0.663697
-0.169171 0.022920 1.146000 0.821062 0 0.570839
-0.155530 0.022840 1.142000 0.826199 0 0.563378
-0.123331 0.022920 1.146000 -0.67296 -0.672964 0.306993
-0.115000 0.023000 1.150000 -0.671626 -0.671626 0.31279
-0.097730 0.023060 1.153000 -0.639824 -0.639824 0.425735
-0.093662 0.023140 1.157000 -0.668416 -0.668414 0.326255
-0.091774 0.023220 1.161000 -0.904363 0 0.426764
-0.089871 0.023300 1.165000 -0.903025 0 0.429587
-0.087953 0.023380 1.169000 -0.901694 0 0.432376
-0.086020 0.023460 1.173000 -0.900347 0 0.435174
-0.084071 0.023540 1.177000 -0.899006 0 0.437937
-0.077609 0.023620 1.181000 -0.664458 -0.664457 0.342043
-0.069075 0.023780 1.189000 -0.976006 0 0.217742
-0.072810 0.027800 1.390000 -0.999156 -0 -0.0410788
-0.065147 0.027920 1.396000 -0.930199 0 0.367056
-0.056924 0.027800 1.390000 0.671851 0.671851 0.311822
-0.269277 0.026132 1.193000 0.782504 0 0.622645
-0.261060 0.026220 1.197000 -0.683859 -0.683855 0.25432
-0.260726 0.026417 1.206000 -0.706491 -0.706491 0.0417174
-0.256981 0.026505 1.210000 -0.682419 -0.682426 0.261915
-0.208081 0.025870 1.181000 -0.984831 1.06089e-06 -0.173518
-0.202892 0.025782 1.177000 0.805852 0 0.592117
-0.199969 0.025694 1.173000 0.807325 0 0.590107
