-0.201311 0.108906 1.155063 0.352034 -0.660556 0.663128
-0.198691 0.108676 1.152625 0.562793 -0.507078 0.652791
-0.196144 0.108482 1.150563 0.565048 -0.377855 0.733448
-0.193731 0.108358 1.149250 0.437175 -0.333776 0.835148
-0.191292 0.108216 1.147750 0.482286 -0.32224 0.814593
-0.188982 0.108146 1.147000 0.276749 -0.369501 0.887062
-0.180204 0.108122 1.146750 0.0794481 -0.636862 0.766873
-0.177825 0.108004 1.145500 0.326136 -0.654383 0.682215
-0.175375 0.107839 1.143750 0.448091 -0.578125 0.681899
-0.173045 0.107745 1.142750 0.268441 -0.673228 0.688987
-0.170794 0.107698 1.142250 0.113961 -0.800398 0.588537
-0.168544 0.107651 1.141750 0.108585 -0.817475 0.565636
-0.135095 0.087415 0.927125 0.894346 -0.410407 0.178077
-0.071707 0.047013 0.498625 0.5169 -0.841743 0.15583
-0.030279 0.020118 0.213375 0.254137 -0.958753 0.127306
-0.009957 0.006706 0.071125 0.716009 0.697134 0.036557
-0.035168 0.026989 0.286250 -0.992537 -1.28289e-06 -0.12194
-0.103898 0.080991 0.859000 -0.992874 0.000286892 -0.119172
-0.136399 0.108028 1.145750 -0.993631 0.000648323 -0.112681
-0.134246 0.108051 1.146000 -0.115329 0 0.993327
-0.125596 0.108122 1.146750 -0.321967 -0.214597 0.922109
-0.123574 0.108264 1.148250 -0.494962 -0.494963 0.71416
-0.121492 0.108358 1.149250 -0.349373 -0.524264 0.776586
-0.119374 0.108423 1.149938 -0.287738 -0.287738 0.913463
-0.117311 0.108541 1.151188 -0.465343 -0.372201 0.803071
-0.115381 0.108788 1.153813 -0.699104 -0.449065 0.556412
-0.113551 0.109142 1.157562 -0.84309 -0.30849 0.440492
-0.111605 0.109395 1.160250 -0.78066 -0.217481 0.585895
-0.109489 0.109489 1.161250 -0.410752 -0.205263 0.888341
-0.107393 0.109607 1.162500 -0.478623 -0.287069 0.829766
-0.105337 0.109772 1.164250 -0.613123 -0.262565 0.745077
-0.103186 0.109843 1.165000 -0.324095 -0.107985 0.939841
-0.100988 0.109866 1.165250 -0.111158 -0.111157 0.987567
-0.098811 0.109914 1.165750 -0.206478 -0.30976 0.928125
-0.096694 0.110031 1.167000 -0.457929 -0.366272 0.810028
-0.094755 0.110361 1.170500 -0.824077 -0.293754 0.484361
-0.092940 0.110856 1.175750 -0.905412 -0.257865 0.337246
-0.091202 0.111469 1.182250 -0.938083 -0.215565 0.271167
-0.089458 0.112106 1.189000 -0.942005 -0.20841 0.263044
-0.087505 0.112506 1.193250 -0.840026 -0.345169 0.418587
-0.085393 0.112719 1.195500 -0.0273524 -0.992487 0.119252
-0.083307 0.112978 1.198250 -0.00985883 -0.99481 0.101274
-0.081278 0.113331 1.202000 -0.013551 -0.994781 0.101125
-0.079186 0.113614 1.205000 -0.038602 -0.991968 0.120452
-0.077034 0.113826 1.207250 -0.517006 0.743405 0.424327
-0.074874 0.114039 1.209500 -0.532299 0.721355 0.443062
-0.072645 0.114156 1.210750 -0.318837 0.810044 0.492109
-0.070382 0.114227 1.211500 -0.204675 0.816084 0.540476
-0.068131 0.114321 1.212500 -0.297723 0.742237 0.600371
-0.065849 0.114369 1.213000 -0.161593 0.725381 0.669111
-0.045921 0.085776 0.909750 0.99833 0.00739429 0.057301
-0.018390 0.035699 0.378625 0.918128 -0.387257 0.084103
-0.010552 0.021320 0.226125 2.84282e-06 -0.995584 0.0938696
-0.013496 0.028427 0.301500 -1.78502e-06 -0.995585 0.0938694
-0.009691 0.021320 0.226125 8.92507e-07 -0.995584 0.0938694
-0.015564 0.035834 0.380062 -0.941768 -0.336237 -0.00423032
-0.035658 0.086101 0.913188 -0.999281 0.00213747 -0.0378641
-0.273541 0.115597 1.201750 -0.293375 0.84436 0.448317
-0.266424 0.115489 1.200625 0.259956 0.821469 0.507554
-0.263835 0.115356 1.199250 0.282792 0.846461 0.451146
-0.261496 0.115332 1.199000 0.0524031 0.913978 0.402365
-0.259158 0.115308 1.198750 0.0501076 0.92372 0.379778
-0.257009 0.115368 1.199375 -0.122123 0.936071 0.329934
-0.255016 0.115501 1.200750 -0.291165 0.895811 0.335776
-0.252492 0.115392 1.199625 0.228599 0.873998 0.4288
-0.249582 0.115104 1.196625 0.451489 0.816654 0.359491
-0.247018 0.114972 1.195250 0.213264 0.927033 0.30843
-0.244793 0.114996 1.195500 -0.0403305 0.963012 0.266425
-0.242503 0.114990 1.195438 0.0109666 0.950467 0.310631
-0.239950 0.114857 1.194062 0.264277 0.874543 0.406612
-0.237414 0.114731 1.192750 0.278054 0.845511 0.455848
-0.234501 0.114419 1.189500 0.534863 0.739808 0.408174
-0.231113 0.113865 1.183750 0.769013 0.494037 0.405643
-0.228133 0.113505 1.180000 0.783477 0.0131163 0.621282
-0.225264 0.113192 1.176750 0.679365 -0.367368 0.635219
-0.222169 0.112759 1.172250 0.771789 -0.301743 0.559727
-0.219327 0.112447 1.169000 0.665971 -0.411677 0.622096
-0.216821 0.112302 1.167500 0.424607 -0.496748 0.756934
-0.214322 0.112158 1.166000 0.442262 -0.443406 0.779613
-0.211737 0.111966 1.164000 0.522261 -0.45846 0.719067
-0.209160 0.111773 1.162000 0.504751 -0.506453 0.699093
-0.206590 0.111581 1.160000 0.505403 -0.507152 0.698115
-0.204073 0.111413 1.158250 0.478741 -0.480195 0.734996
-0.201561 0.111244 1.156500 0.501809 -0.41332 0.759838
-0.198885 0.110980 1.153750 0.675058 -0.277078 0.683757
-0.196218 0.110715 1.151000 0.707879 -0.112933 0.697247
-0.193815 0.110595 1.149750 0.446953 -0.179033 0.876459
-0.191542 0.110547 1.149250 0.172978 -0.519883 0.836541
-0.189311 0.110523 1.149000 0.0792521 -0.635332 0.768162
-0.178213 0.110427 1.148000 0.26755 -0.670905 0.691595
-0.175720 0.110234 1.146000 0.493145 -0.556871 0.668358
-0.173386 0.110138 1.145000 0.281723 -0.635644 0.718741
-0.168913 0.110066 1.144250 0.20592 -0.688423 0.695464
-0.156005 0.102984 1.070625 0.379271 -0.912338 0.154251
-0.133078 0.089012 0.925375 0.155457 -0.980665 0.118869
-0.100823 0.068343 0.710500 0.0985709 -0.989039 0.109933
-0.049683 0.034136 0.354875 0.123698 -0.985908 0.112624
-0.009787 0.006817 0.070875 -4.83761e-06 -0.995406 0.0957478
-0.035106 0.027486 0.285750 -0.992537 -2.6768e-06 -0.12194
-0.103777 0.082531 0.858000 -0.99287 0.000578501 -0.119201
-0.136339 0.110162 1.145250 -0.993622 0.00128698 -0.112759
-0.134246 0.110234 1.146000 -0.337278 0 0.941405
-0.129908 0.110258 1.146250 -0.113265 -0.113264 0.987088
-0.127781 0.110306 1.146750 -0.210306 -0.315529 0.925318
-0.125706 0.110403 1.147750 -0.38597 -0.38597 0.837886
-0.123701 0.110565 1.149438 -0.570618 -0.401389 0.716436
-0.121631 0.110673 1.150563 -0.402432 -0.469589 0.785834
-0.119524 0.110751 1.151375 -0.291467 -0.515946 0.80551
-0.117554 0.110962 1.153563 -0.559942 -0.608043 0.562805
-0.115681 0.111274 1.156813 -0.66028 -0.609361 0.438988
-0.113766 0.111557 1.159750 -0.693796 -0.516332 0.502045
-0.111725 0.111725 1.161500 -0.574055 -0.409875 0.708846
-0.109607 0.111821 1.162500 -0.363387 -0.454321 0.813353
-0.107508 0.111942 1.163750 -0.440597 -0.440595 0.782145
-0.105382 0.112038 1.164750 -0.409001 -0.204413 0.889344
-0.103208 0.112086 1.165250 -0.220416 -0.110185 0.969162
-0.101075 0.112182 1.166250 -0.378824 -0.378824 0.844384
-0.098981 0.112326 1.167750 -0.442666 -0.590461 0.674835
-0.096922 0.112519 1.169750 -0.485507 -0.667987 0.563982
-0.094977 0.112855 1.173250 -0.704485 -0.553157 0.444656
-0.093098 0.113288 1.177750 -0.842604 -0.373686 0.387785
-0.091279 0.113817 1.183250 -0.93088 -0.168595 0.324096
-0.089477 0.114395 1.189250 -0.955913 -0.0396358 0.290963
-0.087523 0.114803 1.193500 -0.905379 -0.053101 0.421271
-0.085429 0.115044 1.196000 -0.750683 -0.149879 0.643437
-0.083320 0.115278 1.198437 -0.752264 -0.0577252 0.656329
-0.081253 0.115585 1.201625 -0.83923 0.0984482 0.534791
-0.079116 0.115807 1.203938 -0.709908 0.325262 0.624688
-0.076890 0.115910 1.205000 -0.332655 0.70249 0.629165
-0.074688 0.116054 1.206500 -0.389261 0.775593 0.496923
-0.072495 0.116222 1.208250 -0.483792 0.688693 0.540044
-0.070266 0.116342 1.209500 -0.40152 0.640789 0.654348
-0.068019 0.116439 1.210500 -0.329595 0.65752 0.677521
-0.065740 0.116487 1.211000 -0.170609 0.681109 0.712027
-0.049650 0.094615 0.983625 0.913825 -0.395219 0.0934132
-0.033010 0.065373 0.679625 0.360195 -0.926506 0.108836
-0.035175 0.072504 0.753750 -0.0464844 -0.994458 0.0942999
-0.040487 0.087004 0.904500 -0.0990818 -0.990834 0.0918174
-0.032304 0.072504 0.753750 0.0708929 -0.992527 0.0993201
-0.027855 0.065428 0.680188 0.122008 -0.987239 0.102341
-0.038472 0.094772 0.985250 -0.984719 -0.173259 -0.0176029
-0.272460 0.117420 1.197000 -0.160371 0.933176 0.321656
-0.270124 0.117395 1.196750 0.0470094 0.936507 0.347484
-0.267900 0.117420 1.197000 -0.0494736 0.936109 0.348213
-0.265440 0.117340 1.196187 0.1647 0.896755 0.410736
-0.262763 0.117163 1.194375 0.321558 0.862686 0.390351
-0.260324 0.117089 1.193625 0.130782 0.933592 0.33362
-0.257834 0.116991 1.192625 0.154715 0.943619 0.292654
-0.255308 0.116874 1.191437 0.145323 0.965878 0.214384
-0.253211 0.116954 1.192250 -0.0948376 0.984404 0.148173
-0.250927 0.116948 1.192188 0.00827033 0.97844 0.206365
-0.248161 0.116715 1.189813 0.31704 0.90602 0.280382
-0.245623 0.116586 1.188500 0.184876 0.946473 0.264594
-0.243462 0.116635 1.189000 -0.075084 0.970431 0.229403
-0.241299 0.116684 1.189500 -0.0814952 0.962646 0.258206
-0.238882 0.116611 1.188750 0.132222 0.933069 0.334513
-0.236469 0.116537 1.188000 0.144961 0.914921 0.376705
-0.233861 0.116365 1.186250 0.403178 0.747817 0.527463
-0.230869 0.115998 1.182500 0.767681 0.256442 0.587285
-0.228037 0.115703 1.179500 0.727663 0.121524 0.675084
-0.225264 0.115434 1.176750 0.704147 0 0.710054
-0.222359 0.115090 1.173250 0.741551 -0.212668 0.636297
-0.219655 0.114845 1.170750 0.595792 -0.418576 0.685438
-0.217193 0.114722 1.169500 0.351397 -0.563781 0.747442
-0.214690 0.114575 1.168000 0.407279 -0.544655 0.733127
-0.212101 0.114379 1.166000 0.503375 -0.505097 0.701064
-0.209520 0.114183 1.164000 0.504035 -0.50581 0.700075
-0.206947 0.113987 1.162000 0.504748 -0.506455 0.699094
-0.204381 0.113790 1.160000 0.523803 -0.459814 0.717078
-0.201823 0.113594 1.158000 0.542635 -0.408212 0.734105
-0.199132 0.113318 1.155187 0.662678 -0.339967 0.667293
-0.196367 0.112993 1.151875 0.743055 -0.196994 0.63958
-0.193889 0.112828 1.150187 0.550474 -0.142976 0.822519
-0.191667 0.112810 1.150000 0.0774039 -0.309819 0.94764
-0.178407 0.112736 1.149250 0.264584 -0.441782 0.857219
-0.175950 0.112564 1.147500 0.502858 -0.43225 0.748528
-0.173613 0.112466 1.146500 0.325606 -0.489449 0.808962
-0.169098 0.112368 1.145500 0.341169 -0.427252 0.837293
-0.166515 0.112098 1.142750 0.0353079 -0.990838 0.130357
-0.163835 0.111755 1.139250 0.0131709 -0.994107 0.107604
-0.151182 0.104508 1.065375 0.12784 -0.984691 0.11849
-0.109218 0.076527 0.780125 0.216297 -0.968061 0.126782
-0.048938 0.034763 0.354375 0.134284 -0.984182 0.115556
-0.009652 0.006952 0.070875 -4.84352e-06 -0.995223 0.0976267
-0.061475 0.049084 0.500375 -0.869104 -0.491294 -0.0573359
-0.112380 0.091143 0.929125 -0.98952 -0.0957328 -0.108094
-0.136310 0.112319 1.145000 -0.993902 0.000939561 -0.110266
-0.134275 0.112442 1.146250 -0.516184 -0.103136 0.850245
-0.132149 0.112491 1.146750 -0.210344 -0.315586 0.92529
-0.130050 0.112564 1.147500 -0.28222 -0.470539 0.836029
-0.127976 0.112662 1.148500 -0.331271 -0.58014 0.744108
-0.125891 0.112754 1.149438 -0.316135 -0.569378 0.75886
-0.123836 0.112877 1.150687 -0.445657 -0.445655 0.77639
-0.121770 0.112993 1.151875 -0.421149 -0.465504 0.778421
-0.119712 0.113122 1.153188 -0.414867 -0.573149 0.706672
-0.117783 0.113380 1.155813 -0.644846 -0.552538 0.528086
-0.115875 0.113668 1.158750 -0.717182 -0.472619 0.512134
-0.113913 0.113913 1.161250 -0.694871 -0.416578 0.586188
-0.111894 0.114109 1.163250 -0.580687 -0.507996 0.636194
-0.109772 0.114207 1.164250 -0.327481 -0.573437 0.750951
-0.107601 0.114256 1.164750 -0.197605 -0.395377 0.897011
-0.105427 0.114305 1.165250 -0.214379 -0.214379 0.952934
-0.103296 0.114404 1.166250 -0.378827 -0.378826 0.844382
-0.101227 0.114575 1.168000 -0.524105 -0.524108 0.671286
-0.099171 0.114771 1.170000 -0.529907 -0.59627 0.603042
-0.097150 0.115017 1.172500 -0.572559 -0.629941 0.524738
-0.095200 0.115360 1.176000 -0.703815 -0.552653 0.446339
-0.093256 0.115728 1.179750 -0.78833 -0.419817 0.449766
-0.091376 0.116194 1.184500 -0.895625 -0.234998 0.377666
-0.089533 0.116733 1.190000 -0.936685 -0.127227 0.326244
-0.087542 0.117101 1.193750 -0.879269 -0.0584409 0.472727
-0.085429 0.117322 1.196000 -0.728927 0 0.684591
-0.083259 0.117475 1.197562 -0.568792 0.317876 0.758571
-0.081096 0.117647 1.199312 -0.502572 0.661881 0.556179
-0.078952 0.117855 1.201437 -0.561363 0.657895 0.502041
-0.076723 0.117947 1.202375 -0.275078 0.767872 0.578536
-0.074479 0.118021 1.203125 -0.190251 0.853273 0.48552
-0.072296 0.118199 1.204937 -0.431751 0.785756 0.442921
-0.070106 0.118376 1.206750 -0.476316 0.71991 0.50483
-0.067892 0.118524 1.208250 -0.447057 0.668489 0.59436
-0.065631 0.118597 1.209000 -0.252688 0.672343 0.695775
-0.057171 0.111105 1.132625 0.382087 -0.916212 0.120683
-0.051255 0.103515 1.055250 0.121979 -0.986842 0.10613
-0.052716 0.110811 1.129625 -0.139327 -0.985778 0.0939636
-0.053938 0.118205 1.205000 -0.196066 -0.97621 0.0925822
-0.048412 0.110811 1.129625 0.123763 -0.986649 0.105858
-0.043195 0.103466 1.054750 0.118839 -0.987332 0.105134
-0.044197 0.111032 1.131875 -0.439499 -0.894489 0.0820324
-0.270980 0.119050 1.190500 0.0744538 0.963145 0.258474
-0.268544 0.118975 1.189750 0.103934 0.964899 0.241181
-0.266445 0.119050 1.190500 -0.112555 0.969455 0.217918
-0.264067 0.119000 1.190000 0.0778195 0.958471 0.274367
-0.261360 0.118800 1.188000 0.286791 0.91078 0.297037
-0.258988 0.118750 1.187500 0.0785455 0.957696 0.276854
-0.256564 0.118675 1.186750 0.121396 0.946911 0.297694
-0.253714 0.118400 1.184000 0.336241 0.905788 0.257857
-0.251300 0.118325 1.183250 0.0824497 0.982475 0.167167
-0.249204 0.118400 1.184000 -0.0907949 0.983678 0.155348
-0.246844 0.118350 1.183500 0.0765072 0.961227 0.264934
-0.244487 0.118300 1.183000 0.0863684 0.945949 0.312604
-0.242285 0.118325 1.183250 -0.0419852 0.960877 0.273773
-0.240081 0.118350 1.183500 -0.0404287 0.964852 0.259664
-0.233171 0.118275 1.182750 0.182073 0.847641 0.498352
-0.230527 0.118075 1.180750 0.551391 0.482573 0.680508
-0.227843 0.117850 1.178500 0.630335 0.280433 0.723903
-0.225264 0.117675 1.176750 0.5614 0 0.827545
-0.222596 0.117450 1.174500 0.592169 -0.329981 0.735152
-0.219890 0.117200 1.172000 0.628128 -0.31509 0.711459
-0.217379 0.117050 1.170500 0.472636 -0.315771 0.822742
-0.214919 0.116925 1.169250 0.399065 -0.399923 0.825112
-0.212374 0.116750 1.167500 0.493145 -0.423877 0.759695
-0.209790 0.116550 1.165500 0.539555 -0.405891 0.737653
-0.207214 0.116350 1.163500 0.540396 -0.4065 0.736702
-0.204645 0.116150 1.161500 0.541197 -0.407125 0.735769
-0.202084 0.115950 1.159500 0.542012 -0.407751 0.734821
-0.199369 0.115656 1.156562 0.67979 -0.319374 0.660216
-0.196538 0.115287 1.152875 0.765537 -0.208436 0.608694
-0.193952 0.115056 1.150563 0.657465 -0.10688 0.745866
-0.191667 0.115000 1.150000 0.239024 0 0.971014
-0.178485 0.114975 1.149750 0.106515 -0.213169 0.971192
-0.176142 0.114875 1.148750 0.339784 -0.42551 0.838742
-0.173840 0.114800 1.148000 0.252327 -0.50569 0.82499
-0.171616 0.114775 1.147750 0.093501 -0.468164 0.878681
-0.169245 0.114650 1.146500 0.424485 -0.340258 0.839069
-0.166734 0.114425 1.144250 0.592623 -0.39639 0.701194
-0.164087 0.114100 1.141000 0.698975 -0.378021 0.60707
-0.161417 0.113750 1.137500 0.0448638 -0.990069 0.13323
-0.149013 0.106438 1.064375 0.172342 -0.976827 0.126917
-0.097910 0.070900 0.709000 0.313423 -0.939384 0.139009
-0.028957 0.021262 0.212625 0.327184 -0.934694 0.138919
-0.027217 0.021487 0.214875 -0.992073 0 -0.125664
-0.080425 0.064462 0.644625 -0.707003 -0.70701 -0.016833
-0.114334 0.093063 0.930625 -0.458264 -0.888147 0.0344811
-0.129827 0.107338 1.073375 -0.70282 -0.711349 -0.00514538
-0.136369 0.114550 1.145500 -0.995949 -0.0064768 -0.0896857
-0.134334 0.114675 1.146750 -0.503598 -0.201288 0.840162
-0.132322 0.114825 1.148250 -0.495298 -0.4953 0.713693
-0.130248 0.114925 1.149250 -0.331072 -0.579726 0.744519
-0.128115 0.114975 1.149750 -0.190125 -0.47567 0.858831
-0.126014 0.115056 1.150563 -0.310992 -0.430698 0.847221
-0.123964 0.115188 1.151875 -0.468826 -0.424156 0.774786
-0.121869 0.115281 1.152812 -0.366351 -0.366353 0.85532
-0.119796 0.115400 1.154000 -0.458492 -0.313598 0.83153
-0.117827 0.115625 1.156250 -0.737661 -0.143212 0.659808
-0.115850 0.115850 1.158500 -0.752643 0.0834824 0.653115
-0.113913 0.116125 1.161250 -0.817571 0 0.575828
-0.111966 0.116400 1.164000 -0.786918 -0.214259 0.578665
-0.109843 0.116500 1.165000 -0.395487 -0.296552 0.869279
-0.107647 0.116525 1.165250 -0.108007 -0.21606 0.970388
-0.105518 0.116625 1.166250 -0.378827 -0.378827 0.844382
-0.103429 0.116775 1.167750 -0.486379 -0.486379 0.725858
-0.101357 0.116950 1.169500 -0.546566 -0.468391 0.694172
-0.099320 0.117175 1.171750 -0.623681 -0.484885 0.613114
-0.097295 0.117425 1.174250 -0.664682 -0.464967 0.584811
-0.095301 0.117725 1.177250 -0.773402 -0.321776 0.546178
-0.093296 0.118025 1.180250 -0.817327 -0.135952 0.559905
-0.091356 0.118425 1.184250 -0.900574 0.0560794 0.43107
-0.089515 0.118975 1.189750 -0.948649 0.0429279 0.313404
-0.087523 0.119350 1.193500 -0.884114 0.0587365 0.463564
-0.085393 0.119550 1.195500 -0.682872 0.170351 0.710399
-0.083203 0.119675 1.196750 -0.484058 0.314055 0.816736
-0.080961 0.119731 1.197312 -0.193269 0.685788 0.701671
-0.078763 0.119856 1.198563 -0.341138 0.781903 0.521779
-0.076540 0.119950 1.199500 -0.261592 0.799724 0.54038
-0.074270 0.119975 1.199750 -0.0642895 0.865336 0.497053
-0.072053 0.120088 1.200875 -0.246011 0.884465 0.396484
-0.069878 0.120281 1.202813 -0.41042 0.830005 0.377687
-0.067706 0.120494 1.204937 -0.490301 0.760906 0.425002
-0.065469 0.120600 1.206000 -0.285747 0.8041 0.521317
-0.060836 0.120525 1.205250 0.00961509 -0.991585 0.1291
-0.058468 0.120375 1.203750 0.00878608 -0.99353 0.113228
-0.056140 0.120300 1.203000 0.00951331 -0.99164 0.128687
-0.047004 0.120375 1.203750 -0.00973742 -0.991658 0.128531
-0.269160 0.120502 1.182500 0.122135 0.971294 0.204136
-0.266794 0.120451 1.182000 0.0634546 0.977622 0.20057
-0.264711 0.120528 1.182750 -0.0956607 0.981516 0.165755
-0.262347 0.120477 1.182250 0.063456 0.977659 0.200391
-0.259820 0.120350 1.181000 0.171077 0.953359 0.248673
-0.257734 0.120426 1.181750 -0.12585 0.959454 0.25221
-0.255591 0.120477 1.182250 -0.103858 0.930868 0.350284
-0.252804 0.120222 1.179750 0.457927 0.777309 0.431386
-0.250344 0.120120 1.178750 0.199433 0.894842 0.399355
-0.248415 0.120273 1.180250 -0.347927 0.865937 0.359305
-0.246323 0.120350 1.181000 -0.235331 0.782367 0.576646
-0.237475 0.120426 1.181750 -0.27758 0.646253 0.710849
-0.235374 0.120502 1.182500 -0.31807 0.423516 0.848213
-0.232974 0.120426 1.181750 0.28666 0.382132 0.878522
-0.230430 0.120273 1.180250 0.508124 0.169504 0.844439
-0.227892 0.120120 1.178750 0.503234 -0.0839915 0.860059
-0.225551 0.120069 1.178250 0.16927 -0.508591 0.844206
-0.223022 0.119916 1.176750 0.38789 -0.583676 0.713347
-0.220077 0.119534 1.173000 0.75984 -0.203428 0.617462
-0.217379 0.119280 1.170500 0.679595 0 0.733588
-0.214919 0.119152 1.169250 0.453113 0 0.891453
-0.212374 0.118974 1.167500 0.566526 0 0.824044
-0.209835 0.118795 1.165750 0.56186 -0.0803972 0.823316
-0.207303 0.118617 1.164000 0.553769 -0.158557 0.817435
-0.204733 0.118413 1.162000 0.599818 -0.150261 0.785901
-0.202215 0.118235 1.160250 0.543673 -0.233486 0.806166
-0.199574 0.117980 1.157750 0.639131 -0.304576 0.706219
-0.196761 0.117617 1.154187 0.741024 -0.274155 0.612962
-0.194089 0.117331 1.151375 0.699451 -0.202716 0.685328
-0.191698 0.117210 1.150187 0.440916 -0.069705 0.894838
-0.189476 0.117190 1.150000 0.0841024 0 0.996457
-0.176295 0.117165 1.149750 0.0980703 -0.392752 0.9144
-0.174067 0.117140 1.149500 0.0884468 -0.531531 0.842409
-0.171765 0.117063 1.148750 0.27679 -0.369555 0.887027
-0.169319 0.116885 1.147000 0.566258 -0.162099 0.808131
-0.166843 0.116681 1.145000 0.600785 -0.225825 0.766851
-0.164266 0.116401 1.142250 0.678064 -0.309263 0.666773
-0.161700 0.116120 1.139500 0.626416 -0.457479 0.631123
-0.149292 0.108669 1.066375 0.985008 -0.0288434 0.170077
-0.098013 0.072327 0.709750 0.98977 -0.00313195 0.142639
-0.028957 0.021668 0.212625 0.990489 0 0.137589
-0.036227 0.029145 0.286000 -0.992073 1.97328e-06 -0.125662
-0.107139 0.087511 0.858750 -0.98108 -0.162728 -0.104886
-0.140856 0.116834 1.146500 -0.821602 -0.568773 -0.0383085
-0.138763 0.116910 1.147250 -0.00942751 -0.991809 0.127378
-0.136518 0.116859 1.146750 0.183273 -0.458814 0.869426
-0.134421 0.116936 1.147500 -0.310206 -0.310205 0.898635
-0.132437 0.117114 1.149250 -0.603368 -0.34457 0.719179
-0.130333 0.117190 1.150000 -0.30929 -0.309288 0.899267
-0.128164 0.117210 1.150187 -0.0827967 -0.193216 0.977656
-0.126076 0.117305 1.151125 -0.38933 -0.2335 0.891011
-0.124024 0.117439 1.152437 -0.515402 -0.220714 0.828038
-0.121889 0.117496 1.153000 -0.251716 -0.0838775 0.964159
-0.119796 0.117598 1.154000 -0.431226 0 0.902244
-0.117802 0.117802 1.156000 -0.709828 0.0885505 0.698787
-0.115800 0.118006 1.158000 -0.704659 0.175776 0.687429
-0.113864 0.118286 1.160750 -0.815744 0.14789 0.559188
-0.111918 0.118566 1.163500 -0.814309 0.147671 0.561332
-0.109843 0.118719 1.165000 -0.585895 0 0.810387
-0.107739 0.118846 1.166250 -0.458705 -0.366895 0.809307
-0.105654 0.118999 1.167750 -0.48638 -0.486378 0.725859
-0.103540 0.119127 1.169000 -0.437947 -0.437946 0.785115
-0.101465 0.119305 1.170750 -0.568551 -0.405946 0.715512
-0.099468 0.119585 1.173500 -0.701877 -0.44628 0.55516
-0.097419 0.119815 1.175750 -0.645337 -0.429939 0.631421
-0.095342 0.120018 1.177750 -0.674967 -0.168516 0.718346
-0.093276 0.120248 1.180000 -0.738331 0.0818964 0.669448
-0.091260 0.120553 1.183000 -0.798352 0.331457 0.502762
-0.089364 0.121037 1.187750 -0.876264 0.366856 0.312374
-0.087395 0.121445 1.191750 -0.848141 0.369266 0.379868
-0.085286 0.121674 1.194000 -0.674483 0.448255 0.586635
-0.083116 0.121827 1.195500 -0.531033 0.441519 0.723232
-0.080889 0.121904 1.196250 -0.301789 0.426923 0.852443
-0.078664 0.121986 1.197062 -0.302871 0.558045 0.772564
-0.076404 0.122018 1.197375 -0.105526 0.715956 0.690124
-0.074092 0.121967 1.196875 0.141103 0.809604 0.569765
-0.071831 0.121999 1.197188 -0.0754426 0.88711 0.455352
-0.069649 0.122171 1.198875 -0.364883 0.847478 0.38554
-0.067478 0.122375 1.200875 -0.41318 0.834985 0.363432
-0.065238 0.122464 1.201750 -0.186777 0.903359 0.38608
-0.060647 0.122439 1.201500 0.0593644 0.887944 0.456105
-0.058334 0.122388 1.201000 0.144851 0.795097 0.58893
-0.056035 0.122362 1.200750 0.0815613 0.73285 0.675484
-0.051474 0.122394 1.201062 -0.109446 0.677404 0.727424
-0.049199 0.122426 1.201375 -0.116644 0.605444 0.787294
-0.046921 0.122451 1.201625 -0.0842033 0.71436 0.694694
-0.265440 0.122080 1.176000 -0.0809744 0.966382 0.244025
-0.263368 0.122158 1.176750 -0.121235 0.964437 0.23487
-0.258940 0.122184 1.177000 -0.0572369 0.912202 0.405723
-0.257134 0.122391 1.179000 -0.538054 0.736868 0.409297
-0.255105 0.122495 1.180000 -0.328549 0.737281 0.590316
-0.252482 0.122314 1.178250 0.518327 0.444378 0.730661
-0.250132 0.122262 1.177750 0.19924 0.398356 0.89533
-0.248204 0.122417 1.179250 -0.585078 0.389244 0.711459
-0.246114 0.122495 1.180000 -0.319654 0.425629 0.846558
-0.237325 0.122599 1.181000 -0.42886 0.321181 0.844347
-0.235324 0.122729 1.182250 -0.531822 0.106218 0.840169
-0.232974 0.122677 1.181750 0.208054 0 0.978117
-0.230479 0.122547 1.180500 0.442486 -0.0886032 0.892388
-0.228037 0.122443 1.179500 0.355486 -0.266979 0.895741
-0.225742 0.122417 1.179250 0.095744 -0.383421 0.918598
-0.223212 0.122262 1.177750 0.469788 -0.313865 0.825099
-0.220218 0.121846 1.173750 0.784396 -0.147685 0.602422
-0.217425 0.121535 1.170750 0.727417 -0.0607845 0.683498
-0.214827 0.121327 1.168750 0.610531 0.15282 0.777108
-0.212192 0.121094 1.166500 0.637085 0.283453 0.716783
-0.209745 0.120964 1.165250 0.454966 0.182129 0.871685
-0.207303 0.120834 1.164000 0.455604 0 0.890182
-0.204733 0.120627 1.162000 0.614242 0 0.789118
-0.202302 0.120497 1.160750 0.442482 -0.177306 0.879074
-0.199833 0.120341 1.159250 0.444154 -0.445303 0.777452
-0.197081 0.120010 1.156062 0.67361 -0.397988 0.62278
-0.194331 0.119673 1.152812 0.708302 -0.314545 0.631957
-0.191823 0.119478 1.150938 0.571323 -0.229077 0.788108
-0.189538 0.119420 1.150375 0.232427 -0.15508 0.960171
-0.187377 0.119439 1.150563 -0.0816358 -0.244988 0.966083
-0.185216 0.119459 1.150750 -0.079151 -0.316758 0.945198
-0.182994 0.119439 1.150563 0.0795873 -0.238919 0.967773
-0.180744 0.119400 1.150187 0.162466 -0.0812735 0.983361
-0.178524 0.119381 1.150000 0.0841697 0 0.996451
-0.171803 0.119277 1.149000 0.387452 -0.0970162 0.916771
-0.169319 0.119070 1.147000 0.627183 0 0.778872
-0.166843 0.118862 1.145000 0.628333 0 0.777945
-0.164338 0.118628 1.142750 0.653617 -0.145625 0.742683
-0.161949 0.118473 1.141250 0.434034 -0.507815 0.744136
-0.129728 0.096193 0.926625 0.818774 0.570572 0.0636904
-0.058967 0.044327 0.427000 0.803187 0.59344 0.0521493
-0.009652 0.007357 0.070875 0.780385 0.623798 0.0433071
-0.036100 0.029586 0.285000 -0.992073 -2.69656e-06 -0.125662
-0.106890 0.088939 0.856750 -0.992407 0.00115169 -0.122992
-0.140764 0.118940 1.145750 -0.993176 0.00192487 -0.11661
-0.138853 0.119173 1.148000 -0.727103 -0.24204 0.642446
-0.134568 0.119251 1.148750 -0.281594 -0.469525 0.83681
-0.132495 0.119355 1.149750 -0.41653 -0.208152 0.884972
-0.130333 0.119381 1.150000 -0.114877 0 0.99338
-0.128206 0.119439 1.150563 -0.247848 -0.165205 0.954609
-0.126158 0.119576 1.151875 -0.503207 -0.287434 0.814963
-0.124091 0.119699 1.153062 -0.471524 -0.248065 0.846244
-0.121968 0.119770 1.153750 -0.283473 -0.309245 0.90775
-0.119900 0.119900 1.155000 -0.463356 -0.370569 0.804972
-0.117904 0.120108 1.157000 -0.652056 -0.325727 0.684635
-0.115875 0.120289 1.158750 -0.616364 -0.263936 0.741912
-0.113840 0.120471 1.160500 -0.653859 0.0932433 0.750849
-0.111821 0.120679 1.162500 -0.679615 0.338908 0.650588
-0.109843 0.120938 1.165000 -0.784128 0 0.620599
-0.107855 0.121198 1.167500 -0.713015 -0.356128 0.603972
-0.105767 0.121353 1.169000 -0.507655 -0.422964 0.750592
-0.103651 0.121483 1.170250 -0.437373 -0.437373 0.785754
-0.101617 0.121717 1.172500 -0.623278 -0.484573 0.613771
-0.099638 0.122028 1.175500 -0.711584 -0.474005 0.518621
-0.097564 0.122236 1.177500 -0.573863 -0.502027 0.647032
-0.095423 0.122365 1.178750 -0.453306 -0.362576 0.81428
-0.093296 0.122521 1.180250 -0.569143 -0.0947938 0.816756
-0.091202 0.122729 1.182250 -0.681015 0.254772 0.68652
-0.089214 0.123092 1.185750 -0.794876 0.452106 0.404688
-0.087230 0.123481 1.189500 -0.796949 0.475782 0.372161
-0.085125 0.123715 1.191750 -0.610304 0.607972 0.507839
-0.082942 0.123845 1.193000 -0.368955 0.735659 0.568048
-0.080754 0.123975 1.194250 -0.406325 0.648332 0.643867
-0.078561 0.124104 1.195500 -0.438767 0.547149 0.71282
-0.073945 0.124000 1.194500 0.301422 0.715024 0.630782
-0.069471 0.124137 1.195812 -0.343776 0.799225 0.493009
-0.067256 0.124254 1.196937 -0.252145 0.878811 0.40511
-0.064994 0.124286 1.197250 -0.0645845 0.926194 0.371476
-0.053580 0.124260 1.197000 0.0594695 0.889585 0.452882
-0.051316 0.124299 1.197375 -0.0904557 0.886379 0.454038
-0.049071 0.124390 1.198250 -0.23254 0.827727 0.51068
-0.046799 0.124416 1.198500 -0.0678553 0.845858 0.529075
-0.266257 0.123659 1.169750 0.04187 0.958652 0.281484
-0.264255 0.123765 1.170750 -0.18145 0.947536 0.263157
-0.262305 0.123897 1.172000 -0.245161 0.926798 0.284502
-0.260183 0.123950 1.172500 -0.109183 0.92436 0.365564
-0.258225 0.124082 1.173750 -0.326523 0.845686 0.422135
-0.256644 0.124399 1.176750 -0.754102 0.563096 0.338013
-0.254780 0.124584 1.178500 -0.610898 0.522123 0.59514
-0.252375 0.124505 1.177750 0.297715 0.198488 0.933792
-0.250025 0.124452 1.177250 0.208054 0.208055 0.955734
-0.247888 0.124505 1.177750 -0.197501 0.591546 0.781707
-0.245697 0.124531 1.178000 -0.0885561 0.707155 0.701491
-0.238915 0.124505 1.177750 0.0817983 0.734992 0.673124
-0.236772 0.124558 1.178250 -0.149362 0.819304 0.553562
-0.234826 0.124716 1.179750 -0.446457 0.741591 0.500718
-0.232678 0.124769 1.180250 -0.196853 0.589466 0.78344
-0.230283 0.124690 1.179500 0.287613 0.383391 0.877662
-0.227843 0.124584 1.178500 0.366379 0.36638 0.855296
-0.225455 0.124505 1.177750 0.268875 0.537364 0.799341
-0.222927 0.124346 1.176250 0.471701 0.471699 0.744982
-0.220124 0.124029 1.173250 0.731589 0.122212 0.670703
-0.217379 0.123739 1.170500 0.709608 0.0646474 0.701624
-0.214781 0.123527 1.168500 0.612261 0.0766753 0.786929
-0.212237 0.123342 1.166750 0.560943 -0.0802689 0.823954
-0.209835 0.123236 1.165750 0.370621 -0.185593 0.910052
-0.207392 0.123104 1.164500 0.440756 -0.176549 0.880094
-0.204821 0.122893 1.162500 0.599385 -0.1502 0.786242
-0.202389 0.122761 1.161250 0.442259 -0.177152 0.879218
-0.199962 0.122629 1.160000 0.43102 -0.259032 0.864363
-0.197284 0.122338 1.157250 0.669992 -0.290327 0.683243
-0.194584 0.122027 1.154312 0.672711 -0.344829 0.65464
-0.192052 0.121816 1.152313 0.553164 -0.381404 0.740635
-0.189723 0.121730 1.151500 0.288681 -0.40036 0.869698
-0.187591 0.121770 1.151875 -0.141505 -0.495629 0.856929
-0.185457 0.121809 1.152250 -0.135589 -0.542851 0.828812
-0.183203 0.121770 1.151875 0.136069 -0.476899 0.868362
-0.180891 0.121690 1.151125 0.278419 -0.348489 0.895007
-0.178611 0.121631 1.150563 0.227599 -0.227873 0.946717
-0.176362 0.121591 1.150187 0.162542 -0.0813095 0.983346
-0.174143 0.121571 1.150000 0.084196 0 0.996449
-0.171803 0.121466 1.149000 0.392948 0 0.919561
-0.169319 0.121254 1.147000 0.627183 0 0.778872
-0.166843 0.121043 1.145000 0.628333 0 0.777945
-0.164374 0.120831 1.143000 0.623538 -0.0780887 0.777884
-0.151927 0.113180 1.070625 0.714312 0.698107 0.049052
-0.099925 0.075454 0.713750 0.821916 0.566452 0.0598828
-0.029570 0.022636 0.214125 0.813379 0.579287 0.0532982
-0.063064 0.052632 0.497875 -0.871827 -0.486395 -0.0577719
-0.115639 0.097984 0.926875 -0.989332 -0.0939774 -0.111309
-0.140549 0.120937 1.144000 -0.993385 0.00648147 -0.114652
-0.138732 0.121254 1.147000 -0.834609 0.27726 0.475978
-0.136756 0.121439 1.148750 -0.624618 -0.267444 0.733707
-0.134707 0.121565 1.149938 -0.432219 -0.43222 0.791437
-0.132589 0.121631 1.150563 -0.257103 -0.334291 0.906724
-0.130418 0.121651 1.150750 -0.0788246 -0.315454 0.945661
-0.128289 0.121710 1.151312 -0.234417 -0.312623 0.920497
-0.126247 0.121856 1.152688 -0.516795 -0.305226 0.79985
-0.124219 0.122021 1.154250 -0.53637 -0.407539 0.739066
-0.122179 0.122179 1.155750 -0.445766 -0.594639 0.669102
-0.120160 0.122364 1.157500 -0.458962 -0.656102 0.599069
-0.118133 0.122549 1.159250 -0.480627 -0.618242 0.621911
-0.116025 0.122655 1.160250 -0.345225 -0.518057 0.782583
-0.113864 0.122708 1.160750 -0.221503 -0.110702 0.968856
-0.111773 0.122840 1.162000 -0.511778 0.204452 0.834435
-0.109843 0.123157 1.165000 -0.840938 0 0.541131
-0.107901 0.123474 1.168000 -0.824866 -0.13717 0.548435
-0.105835 0.123659 1.169750 -0.610094 -0.261227 0.748028
-0.103761 0.123844 1.171500 -0.568185 -0.405644 0.715974
-0.101725 0.124082 1.173750 -0.668621 -0.371134 0.644364
-0.099722 0.124373 1.176500 -0.762593 -0.27688 0.584627
-0.097647 0.124584 1.178500 -0.64038 -0.31992 0.698259
-0.095463 0.124664 1.179250 -0.310971 -0.207269 0.927543
-0.093276 0.124743 1.180000 -0.325984 0.108621 0.939115
-0.091164 0.124928 1.181750 -0.636723 0.181551 0.749415
-0.089157 0.125271 1.185000 -0.843757 0.194079 0.500407
-0.087138 0.125615 1.188250 -0.820888 0.31454 0.476662
-0.084964 0.125747 1.189500 -0.388609 0.69744 0.60213
-0.082733 0.125800 1.190000 -0.139435 0.833988 0.533875
-0.080568 0.125959 1.191500 -0.411644 0.752055 0.514745
-0.078381 0.126091 1.192750 -0.351097 0.769835 0.532997
-0.076093 0.126064 1.192500 0.0695768 0.833101 0.548727
-0.073760 0.125959 1.191500 0.266916 0.799383 0.538278
-0.069279 0.126064 1.192500 -0.255143 0.842077 0.475193
-0.067035 0.126117 1.193000 -0.114745 0.900379 0.419703
-0.062504 0.126144 1.193250 -0.056865 0.906638 0.41806
-0.060243 0.126170 1.193500 -0.0597672 0.893171 0.445728
-0.057958 0.126144 1.193250 0.0567263 0.904455 0.422781
-0.055673 0.126117 1.193000 0.0540686 0.916119 0.397243
-0.053379 0.126064 1.192500 0.102737 0.921665 0.374138
-0.051110 0.126071 1.192562 -0.0122304 0.938513 0.345027
-0.048892 0.126210 1.193875 -0.2692 0.893083 0.360465
-0.046647 0.126289 1.194625 -0.172822 0.889403 0.423197
-0.265290 0.125430 1.165500 0.208795 0.884957 0.41624
-0.263296 0.125538 1.166500 -0.216816 0.917408 0.333696
-0.261354 0.125672 1.167750 -0.268551 0.90876 0.319431
-0.259185 0.125699 1.168000 -0.0521292 0.934657 0.351708
-0.257290 0.125860 1.169500 -0.318302 0.897422 0.305478
-0.255826 0.126237 1.173000 -0.670234 0.713676 0.2036
-0.254186 0.126533 1.175750 -0.669663 0.666523 0.327564
-0.252054 0.126587 1.176250 -0.197961 0.592942 0.780533
-0.249760 0.126560 1.176000 0.0997175 0.498219 0.861298
-0.245332 0.126587 1.176250 -0.0937231 0.655002 0.749792
-0.243195 0.126641 1.176750 -0.207255 0.51742 0.830254
-0.238509 0.126533 1.175750 0.316798 0.633103 0.706272
-0.236220 0.126506 1.175500 0.0734943 0.806725 0.586338
-0.234279 0.126668 1.177000 -0.424848 0.77606 0.466085
-0.232234 0.126775 1.178000 -0.328127 0.736322 0.591745
-0.229893 0.126721 1.177500 0.168907 0.67481 0.718402
-0.227457 0.126614 1.176500 0.317403 0.634265 0.704956
-0.225024 0.126506 1.175500 0.303569 0.682349 0.665016
-0.222501 0.126345 1.174000 0.424089 0.635713 0.644994
-0.219843 0.126103 1.171750 0.611266 0.407758 0.678297
-0.217239 0.125887 1.169750 0.60503 0.227149 0.763113
-0.214827 0.125780 1.168750 0.377655 -0.0945599 0.921105
-0.212510 0.125726 1.168250 0.17001 -0.510816 0.842712
-0.210105 0.125618 1.167250 0.31862 -0.47899 0.817954
-0.207570 0.125430 1.165500 0.526394 -0.301527 0.794978
-0.204998 0.125215 1.163500 0.572878 -0.28714 0.767699
-0.202476 0.125026 1.161750 0.554935 -0.158852 0.816586
-0.200005 0.124865 1.160250 0.512855 -0.085601 0.854197
-0.197454 0.124650 1.158250 0.575566 -0.288504 0.765172
-0.194869 0.124408 1.156000 0.569841 -0.428857 0.700973
-0.192344 0.124199 1.154063 0.514151 -0.46588 0.720142
-0.189950 0.124071 1.152875 0.379901 -0.440823 0.813235
-0.187744 0.124065 1.152812 0.0250717 -0.376609 0.926033
-0.185578 0.124085 1.153000 -0.0789267 -0.315815 0.945533
-0.183352 0.124065 1.152812 0.0745268 -0.372953 0.924852
-0.181097 0.124024 1.152437 0.135947 -0.47647 0.868617
-0.178786 0.123944 1.151688 0.269376 -0.404745 0.873852
-0.176420 0.123822 1.150563 0.419304 -0.139966 0.896991
-0.174143 0.123762 1.150000 0.239872 0 0.970805
-0.171840 0.123681 1.149250 0.304851 -0.101707 0.946954
-0.169356 0.123466 1.147250 0.621091 -0.0778195 0.779866
-0.166806 0.123197 1.144750 0.702186 0.0703521 0.70851
-0.164338 0.122982 1.142750 0.631759 0.0790843 0.77112
-0.131670 0.099857 0.927875 0.814178 0.577332 0.0616514
-0.059955 0.046088 0.428250 0.801698 0.595551 0.0509813
-0.009857 0.007681 0.071375 0.780165 0.624139 0.0423515
-0.027742 0.022882 0.212625 -0.991595 0 -0.129381
-0.082141 0.068755 0.638875 -0.707656 -0.706413 -0.0142891
-0.117214 0.099588 0.925375 -0.462587 -0.885729 0.0386917
-0.133604 0.115247 1.070875 -0.711323 -0.702851 -0.00448897
-0.140641 0.123197 1.144750 -0.995546 -0.00945939 -0.0938036
-0.138763 0.123466 1.147250 -0.792914 -0.0791656 0.604169
-0.136815 0.123681 1.149250 -0.69618 -0.173843 0.6965
-0.134780 0.123822 1.150563 -0.513485 -0.244379 0.822564
-0.132718 0.123944 1.151688 -0.416473 -0.416474 0.808146
-0.130588 0.124004 1.152250 -0.201151 -0.536802 0.819379
-0.128414 0.124024 1.152437 -0.0731101 -0.439253 0.895384
-0.126343 0.124145 1.153563 -0.433924 -0.337391 0.83539
-0.124381 0.124381 1.155750 -0.643927 -0.44129 0.624996
-0.122417 0.124623 1.158000 -0.581133 -0.581133 0.569708
-0.120393 0.124811 1.159750 -0.480488 -0.618022 0.622238
-0.118286 0.124919 1.160750 -0.345072 -0.517816 0.78281
-0.116100 0.124946 1.161000 -0.104125 -0.312565 0.944172
-0.111773 0.125053 1.162000 -0.427378 0 0.904073
-0.109843 0.125376 1.165000 -0.840938 0 0.541131
-0.107901 0.125699 1.168000 -0.839478 0 0.543394
-0.105857 0.125914 1.170000 -0.692124 -0.0863799 0.716591
-0.103806 0.126130 1.172000 -0.678815 -0.169508 0.714477
-0.101725 0.126318 1.173750 -0.643666 0 0.765307
-0.099638 0.126506 1.175500 -0.619564 0.353182 0.701001
-0.097523 0.126668 1.177000 -0.52048 0.519158 0.67792
-0.095342 0.126748 1.177750 -0.285822 0.570591 0.76989
-0.093158 0.126829 1.178500 -0.285624 0.570079 0.770343
-0.091048 0.127017 1.180250 -0.580187 0.495937 0.646088
-0.089025 0.127340 1.183250 -0.764347 0.444097 0.467494
-0.086973 0.127636 1.186000 -0.690489 0.562546 0.454716
-0.084750 0.127690 1.186500 -0.13967 0.835654 0.531201
-0.080331 0.127851 1.188000 -0.357776 0.831291 0.425384
-0.078134 0.127959 1.189000 -0.234583 0.876151 0.421107
-0.075838 0.127905 1.188500 0.112802 0.899854 0.421353
-0.073496 0.127771 1.187250 0.260159 0.882279 0.392303
-0.071220 0.127744 1.187000 0.0516967 0.927212 0.370951
-0.069032 0.127878 1.188250 -0.26373 0.892599 0.365668
-0.066810 0.127959 1.189000 -0.16921 0.898803 0.404377
-0.062294 0.127986 1.189250 -0.0569494 0.907938 0.415217
-0.057739 0.127932 1.188750 0.102855 0.922631 0.371715
-0.055463 0.127905 1.188500 0.0516929 0.927245 0.37087
-0.053177 0.127851 1.188000 0.102904 0.922868 0.371114
-0.050946 0.127932 1.188750 -0.175308 0.88765 0.425845
-0.048795 0.128228 1.191500 -0.67184 0.577752 0.463501
-0.046584 0.128390 1.193000 -0.499321 0.53954 0.677919
-0.264721 0.127376 1.163000 0.223495 0.743823 0.629903
-0.262675 0.127458 1.163750 -0.224863 0.821925 0.523331
-0.260626 0.127540 1.164500 -0.200986 0.868028 0.454018
-0.256465 0.127677 1.165750 -0.295802 0.883579 0.363027
-0.254953 0.128033 1.169000 -0.619485 0.757727 0.205152
-0.253375 0.128362 1.172000 -0.608957 0.756832 0.23744
-0.251411 0.128499 1.173250 -0.344318 0.823438 0.450993
-0.249229 0.128526 1.173500 -0.0793499 0.791675 0.605768
-0.246941 0.128499 1.173250 0.0735829 0.807729 0.584944
-0.244811 0.128554 1.173750 -0.158798 0.791797 0.58978
-0.242885 0.128718 1.175250 -0.544382 0.542951 0.639415
-0.240698 0.128745 1.175500 -0.103567 0.517176 0.84959
-0.238205 0.128608 1.174250 0.411382 0.493552 0.766271
-0.235918 0.128581 1.174000 0.0957679 0.574026 0.813217
-0.233931 0.128718 1.175250 -0.44656 0.62357 0.641674
-0.231840 0.128800 1.176000 -0.264341 0.703306 0.659912
-0.229454 0.128718 1.175250 0.2349 0.70384 0.670396
-0.226925 0.128554 1.173750 0.390455 0.715043 0.579879
-0.224498 0.128444 1.172750 0.276705 0.759779 0.588362
-0.222075 0.128335 1.171750 0.304417 0.684192 0.66273
-0.219514 0.128143 1.170000 0.510852 0.510849 0.691421
-0.217007 0.127979 1.168500 0.48844 0.407129 0.771799
-0.214690 0.127924 1.168000 0.207426 0.311121 0.927458
-0.210105 0.127842 1.167250 0.30288 0 0.953029
-0.207615 0.127677 1.165750 0.509943 -0.0851109 0.855987
-0.205086 0.127486 1.164000 0.553703 -0.158533 0.817484
-0.202520 0.127267 1.162000 0.60896 -0.0762532 0.789527
-0.200091 0.127130 1.160750 0.442415 -0.177278 0.879114
-0.197710 0.127020 1.159750 0.320398 -0.481614 0.815716
-0.195206 0.126829 1.158000 0.459453 -0.526787 0.715122
-0.192667 0.126610 1.156000 0.51042 -0.49617 0.702344
-0.190218 0.126445 1.154500 0.436502 -0.474179 0.764605
-0.187937 0.126390 1.154000 0.182857 -0.434966 0.881685
-0.183501 0.126363 1.153750 0.098691 -0.370315 0.923649
-0.181225 0.126308 1.153250 0.196009 -0.318911 0.927295
-0.178873 0.126199 1.152250 0.374147 -0.210774 0.903099
-0.176448 0.126035 1.150750 0.521762 -0.0653234 0.850586
-0.174143 0.125952 1.150000 0.309379 0 0.950939
-0.171915 0.125925 1.149750 0.106368 -0.212874 0.971273
-0.169430 0.125706 1.147750 0.611324 -0.153149 0.77642
-0.166734 0.125323 1.144250 0.793045 0.113582 0.59848
-0.154002 0.117286 1.070875 0.713119 0.699457 0.0471285
-0.101285 0.078173 0.713750 0.820886 0.56804 0.0589624
-0.029978 0.023452 0.214125 0.812617 0.580437 0.0524059
-0.036990 0.031050 0.283500 -0.991595 -2.01079e-06 -0.129379
-0.109639 0.093396 0.852750 -0.980695 -0.163505 -0.107251
-0.144590 0.125021 1.141500 -0.822602 -0.567384 -0.0374269
-0.142915 0.125460 1.145500 -0.049797 -0.990351 0.129324
-0.140948 0.125651 1.147250 -0.462114 -0.660565 0.591697
-0.138967 0.125836 1.148937 -0.523595 -0.523595 0.672083
-0.136920 0.125966 1.150125 -0.456502 -0.336261 0.823732
-0.134883 0.126110 1.151438 -0.494794 -0.329738 0.804022
-0.132898 0.126308 1.153250 -0.562798 -0.485068 0.669304
-0.130730 0.126336 1.153500 -0.0948783 -0.474798 0.874966
-0.128505 0.126308 1.153250 0.101392 -0.329858 0.93857
-0.126445 0.126445 1.154500 -0.468568 -0.35131 0.810571
-0.124515 0.126719 1.157000 -0.719275 -0.359233 0.594639
-0.122576 0.126993 1.159500 -0.695484 -0.416927 0.585212
-0.120497 0.127130 1.160750 -0.46105 -0.368768 0.80712
-0.118311 0.127157 1.161000 -0.111554 -0.111554 0.987477
-0.111749 0.127239 1.161750 -0.332569 0.110761 0.936552
-0.109772 0.127513 1.164250 -0.77518 0.231884 0.587644
-0.107809 0.127814 1.167000 -0.794034 0.287787 0.535433
-0.105767 0.128033 1.169000 -0.676894 0.337559 0.654117
-0.103717 0.128252 1.171000 -0.675746 0.337028 0.655576
-0.101595 0.128389 1.172250 -0.45234 0.541529 0.708615
-0.099426 0.128471 1.173000 -0.232846 0.774062 0.588736
-0.097295 0.128608 1.174250 -0.354632 0.777523 0.519321
-0.095160 0.128745 1.175500 -0.392048 0.703566 0.5927
-0.093000 0.128855 1.176500 -0.338053 0.674455 0.656376
-0.090836 0.128964 1.177500 -0.288835 0.791752 0.538241
-0.088706 0.129129 1.179000 -0.313352 0.883499 0.348195
-0.086588 0.129320 1.180750 -0.30608 0.912809 0.270359
-0.084375 0.129375 1.181250 -0.0909148 0.950088 0.298442
-0.082177 0.129457 1.182000 -0.154571 0.923221 0.351811
-0.080061 0.129676 1.184000 -0.420126 0.836004 0.352975
-0.077871 0.129786 1.185000 -0.223923 0.892019 0.392632
-0.075582 0.129731 1.184500 0.112963 0.901158 0.418513
-0.073233 0.129567 1.183000 0.307593 0.8695 0.386467
-0.070950 0.129512 1.182500 0.10297 0.92367 0.369095
-0.068785 0.129676 1.184000 -0.312538 0.881225 0.354629
-0.066586 0.129786 1.185000 -0.223736 0.891271 0.394433
-0.062045 0.129731 1.184500 0.0984896 0.932419 0.347699
-0.059726 0.129594 1.183250 0.197531 0.94434 0.263066
-0.057448 0.129539 1.182750 0.08052 0.961828 0.26154
-0.055207 0.129567 1.183000 -0.0437083 0.956927 0.287021
-0.052931 0.129512 1.182500 0.0869631 0.952612 0.291494
-0.047579 0.121592 1.110188 0.678857 0.733652 -0.0301136
-0.039583 0.105862 0.966563 0.564305 0.823472 -0.0587717
-0.034938 0.097996 0.894750 0.283812 0.954994 -0.0862363
-0.264323 0.129396 1.161250 0.178436 0.623898 0.760863
-0.262054 0.129369 1.161000 0.0738978 0.811163 0.580132
-0.259899 0.129396 1.161250 -0.0673421 0.872823 0.483369
-0.257798 0.129452 1.161750 -0.150782 0.827082 0.54148
-0.255805 0.129564 1.162750 -0.280693 0.839164 0.465849
-0.254081 0.129814 1.165000 -0.473997 0.838173 0.269804
-0.252402 0.130093 1.167500 -0.475424 0.850651 0.224422
-0.250554 0.130288 1.169250 -0.382968 0.871067 0.307534
-0.248486 0.130371 1.170000 -0.19022 0.884532 0.425934
-0.246152 0.130316 1.169500 0.118141 0.883647 0.453002
-0.243976 0.130344 1.169750 -0.0574366 0.915682 0.397778
-0.242058 0.130511 1.171250 -0.333129 0.884194 0.327453
-0.239930 0.130566 1.171750 -0.120747 0.902446 0.413535
-0.237596 0.130511 1.171250 0.13755 0.823635 0.550186
-0.235416 0.130539 1.171500 -0.0794313 0.792543 0.60462
-0.233334 0.130622 1.172250 -0.21161 0.843668 0.493403
-0.228673 0.130511 1.171250 0.218992 0.873714 0.434358
-0.226103 0.130316 1.169500 0.346928 0.840754 0.41566
-0.223636 0.130176 1.168250 0.247204 0.887466 0.388967
-0.221316 0.130121 1.167750 0.11272 0.899147 0.422883
-0.218905 0.130009 1.166750 0.252182 0.817959 0.517056
-0.216450 0.129870 1.165500 0.322375 0.772581 0.546985
-0.214184 0.129842 1.165250 0.0739633 0.811492 0.579664
-0.212055 0.129898 1.165750 -0.168411 0.755942 0.632606
-0.207481 0.129814 1.165000 0.299301 0.299303 0.906
-0.204998 0.129647 1.163500 0.517749 0.172758 0.837909
-0.202476 0.129452 1.161750 0.572562 0.0818905 0.815761
-0.200134 0.129369 1.161000 0.300173 -0.100141 0.948614
-0.197880 0.129341 1.160750 0.0968613 -0.387904 0.916596
-0.195501 0.129229 1.159750 0.305611 -0.536065 0.786915
-0.193000 0.129034 1.158000 0.459408 -0.52674 0.715185
-0.190547 0.128867 1.156500 0.409208 -0.547243 0.730119
-0.188263 0.128811 1.156000 0.153886 -0.616919 0.771835
-0.183780 0.128756 1.155500 0.162556 -0.570138 0.805307
-0.181382 0.128616 1.154250 0.419912 -0.336593 0.84284
-0.178941 0.128442 1.152688 0.525719 -0.147457 0.83778
-0.176535 0.128289 1.151312 0.477145 -0.195487 0.856806
-0.174256 0.128226 1.150750 0.221311 -0.295484 0.92936
-0.172036 0.128206 1.150563 0.0763304 -0.331033 0.940527
-0.169568 0.127997 1.148687 0.564843 -0.2831 0.775117
-0.166916 0.127641 1.145500 0.721251 -0.28392 0.631813
-0.133653 0.103559 0.929375 0.817526 0.572543 0.0620237
-0.060842 0.047775 0.428750 0.80233 0.594747 0.0504194
-0.009992 0.007953 0.071375 0.780268 0.624068 0.0414813
-0.027742 0.023692 0.212625 -0.991595 0 -0.12938
-0.091599 0.079386 0.712438 -0.988561 0.069198 -0.13401
-0.136095 0.119723 1.074437 -0.984464 0.113827 -0.133692
-0.143390 0.128066 1.149312 -0.99466 -0.0475116 -0.0916146
-0.141217 0.128080 1.149438 -0.0382885 -0.671046 0.740427
-0.139110 0.128157 1.150125 -0.261803 -0.452436 0.852503
-0.136994 0.128226 1.150750 -0.265073 -0.265073 0.927078
-0.134941 0.128359 1.151937 -0.480571 -0.202218 0.853323
-0.132970 0.128575 1.153875 -0.67223 -0.216608 0.707946
-0.130765 0.128568 1.153813 0.0276109 -0.138205 0.990019
-0.128533 0.128533 1.153500 0.136157 -0.108951 0.984678
-0.126473 0.128672 1.154750 -0.510965 -0.102096 0.853517
-0.124515 0.128923 1.157000 -0.754456 0 0.656351
-0.122629 0.129257 1.160000 -0.831373 -0.138252 0.538243
-0.120601 0.129452 1.161750 -0.595454 -0.340016 0.727889
-0.116125 0.129396 1.161250 0.212034 -0.106083 0.971488
-0.113889 0.129369 1.161000 0.111085 0 0.993811
-0.111725 0.129424 1.161500 -0.226492 0.113172 0.967416
-0.109678 0.129619 1.163250 -0.626326 0.357074 0.692975
-0.107647 0.129842 1.165250 -0.619684 0.540525 0.569055
-0.105563 0.130009 1.166750 -0.459781 0.687474 0.562121
-0.103474 0.130176 1.168250 -0.416972 0.761674 0.49597
-0.101335 0.130288 1.169250 -0.275269 0.822959 0.496955
-0.099193 0.130399 1.170250 -0.290041 0.79501 0.532763
-0.097088 0.130566 1.171750 -0.43671 0.725444 0.531991
-0.094957 0.130706 1.173000 -0.373408 0.744427 0.553529
-0.092822 0.130845 1.174250 -0.39236 0.704125 0.591829
-0.090624 0.130901 1.174750 -0.148386 0.813938 0.561681
-0.088405 0.130929 1.175000 -0.0572013 0.912036 0.406102
-0.086222 0.131012 1.175750 -0.141827 0.940775 0.307941
-0.081830 0.131151 1.177000 -0.232702 0.925906 0.29757
-0.079757 0.131430 1.179500 -0.466325 0.834443 0.293676
-0.077592 0.131569 1.180750 -0.264563 0.895315 0.358353
-0.075327 0.131541 1.180500 0.056936 0.908177 0.414696
-0.072986 0.131374 1.179000 0.321414 0.85529 0.406414
-0.070710 0.131319 1.178500 0.113196 0.902926 0.414621
-0.068552 0.131486 1.180000 -0.326995 0.868013 0.373669
-0.066375 0.131625 1.181250 -0.289776 0.865635 0.408297
-0.064152 0.131681 1.181750 -0.132651 0.859349 0.493886
-0.061862 0.131597 1.181000 0.18538 0.863043 0.469885
-0.059511 0.131374 1.179000 0.395902 0.839692 0.371723
-0.057229 0.131291 1.178250 0.153558 0.91831 0.364867
-0.054997 0.131319 1.178500 -0.0519814 0.931426 0.360199
-0.052741 0.131291 1.178250 0.0543409 0.920232 0.387582
-0.041060 0.106756 0.958063 0.806223 0.59116 -0.0231022
-0.021221 0.057741 0.518188 0.702664 0.70994 -0.0474168
-0.011646 0.033234 0.298250 0.53572 0.841453 -0.0704393
-0.263924 0.131410 1.159500 0.178757 0.62503 0.759857
-0.261490 0.131297 1.158500 0.290356 0.724939 0.624625
-0.257299 0.131410 1.159500 -0.332822 0.746698 0.57591
-0.255310 0.131523 1.160500 -0.332573 0.746156 0.576756
-0.253372 0.131665 1.161750 -0.328113 0.849866 0.412394
-0.251484 0.131835 1.163250 -0.318926 0.89917 0.299631
-0.249643 0.132033 1.165000 -0.366549 0.885616 0.285176
-0.247636 0.132147 1.166000 -0.227742 0.907021 0.354184
-0.245310 0.132090 1.165500 0.112741 0.899265 0.422626
-0.243038 0.132062 1.165250 0.0518369 0.929319 0.365621
-0.240922 0.132118 1.165750 -0.0878204 0.96087 0.262711
-0.238752 0.132147 1.166000 -0.0421927 0.965563 0.256726
-0.234411 0.132203 1.166500 -0.0954428 0.950051 0.297142
-0.232289 0.132260 1.167000 -0.0914749 0.955653 0.279929
-0.229967 0.132203 1.166500 0.0835585 0.956504 0.279497
-0.227599 0.132118 1.165750 0.129332 0.944692 0.301382
-0.225185 0.132005 1.164750 0.192666 0.912186 0.361659
