-0.200220 0.091814 1.161500 0.602551 -0.335758 0.724016
-0.197411 0.091537 1.158000 0.744504 -0.253605 0.617574
-0.194700 0.091300 1.155000 0.679365 -0.355221 0.642092
-0.192260 0.091186 1.153563 0.42293 -0.497862 0.757142
-0.189919 0.091117 1.152688 0.286999 -0.513621 0.808594
-0.187591 0.091053 1.151875 0.281981 -0.456326 0.843951
-0.185246 0.090979 1.150938 0.348795 -0.27948 0.894557
-0.182935 0.090920 1.150187 0.299811 -0.175056 0.9378
-0.180714 0.090905 1.150000 0.0778934 -0.31178 0.946956
-0.174105 0.090885 1.149750 0.0941816 -0.471557 0.876792
-0.171878 0.090865 1.149500 0.0893711 -0.537093 0.838775
-0.169725 0.090885 1.149750 -0.101677 -0.407026 0.90774
-0.167571 0.090905 1.150000 -0.113531 -0.113531 0.987027
-0.147881 0.090920 1.150187 -0.0853414 -0.0853414 0.99269
-0.145714 0.090934 1.150375 -0.0838472 -0.167722 0.982262
-0.143500 0.090920 1.150187 0.0835214 -0.0835484 0.992997
-0.141355 0.090949 1.150563 -0.167563 -0.167562 0.971517
-0.139322 0.091053 1.151875 -0.494672 -0.35321 0.794067
-0.137240 0.091127 1.152812 -0.370323 -0.370323 0.851893
-0.132826 0.091112 1.152625 0.0755074 -0.377862 0.922778
-0.130680 0.091147 1.153062 -0.188243 -0.268968 0.944575
-0.128616 0.091241 1.154250 -0.466496 -0.29453 0.834047
-0.126610 0.091379 1.156000 -0.603362 -0.344574 0.719183
-0.124569 0.091498 1.157500 -0.539116 -0.35927 0.761761
-0.122470 0.091577 1.158500 -0.367743 -0.459777 0.808313
-0.120393 0.091675 1.159750 -0.445903 -0.445903 0.776107
-0.118311 0.091774 1.161000 -0.482631 -0.289474 0.826603
-0.116250 0.091893 1.162500 -0.570482 -0.190028 0.799024
-0.114207 0.092031 1.164250 -0.644265 -0.0919145 0.759259
-0.112062 0.092090 1.165000 -0.329968 0 0.943992
-0.109937 0.092170 1.166000 -0.425853 0 0.904792
-0.107924 0.092347 1.168250 -0.739503 -0.0820231 0.668137
-0.105970 0.092585 1.171250 -0.798134 -0.26557 0.54079
-0.104071 0.092881 1.175000 -0.830816 -0.331692 0.446907
-0.102115 0.093138 1.178250 -0.803935 -0.30866 0.508349
-0.100104 0.093355 1.181000 -0.746454 -0.338868 0.572691
-0.098041 0.093533 1.183250 -0.62479 -0.48575 0.611298
-0.095868 0.093612 1.184250 -0.342955 -0.514629 0.785836
-0.093731 0.093731 1.185750 -0.557579 -0.185689 0.809089
-0.091723 0.093988 1.189000 -0.850738 0 0.525589
-0.089764 0.094309 1.193063 -0.881206 -0.175765 0.438843
-0.087954 0.094808 1.199375 -0.885997 -0.3673 0.283021
-0.086339 0.095549 1.208750 -0.897733 -0.399257 0.186198
-0.084619 0.096211 1.217125 -0.913249 -0.346097 0.214926
-0.082626 0.096591 1.221938 -0.921553 0.107229 0.373152
-0.080488 0.096819 1.224813 -0.625069 0.662618 0.412585
-0.078362 0.097075 1.228063 -0.601601 0.724607 0.336186
-0.076197 0.097298 1.230875 -0.490751 0.812939 0.313518
-0.073954 0.097431 1.232563 -0.338243 0.860199 0.38164
-0.071715 0.097579 1.234437 -0.40693 0.81021 0.421862
-0.069455 0.097708 1.236063 -0.326647 0.862695 0.386081
-0.067131 0.097752 1.236625 -0.106981 0.923232 0.369049
-0.064759 0.097728 1.236313 0.0564351 0.933301 0.354633
-0.062430 0.097767 1.236812 -0.0851546 0.942811 0.322267
-0.060165 0.097915 1.238688 -0.342416 0.874117 0.344487
-0.057817 0.097935 1.238937 -0.0564451 0.886085 0.460074
-0.055359 0.097762 1.236750 0.411046 0.820644 0.39697
-0.052931 0.097629 1.235062 0.304722 0.878043 0.369031
-0.050520 0.097515 1.233625 0.253295 0.900393 0.353742
-0.048077 0.097327 1.231250 0.344561 0.894897 0.283615
-0.284282 0.101104 1.248937 0.0976552 0.943129 0.317759
-0.281028 0.100791 1.245062 0.491196 0.798611 0.347773
-0.277188 0.100260 1.238500 0.706788 0.606277 0.364526
-0.274579 0.100168 1.237375 0.242702 0.834145 0.495276
-0.272992 0.100452 1.240875 -0.829647 0.442552 0.340343
-0.270915 0.100558 1.242188 -0.460092 0.568269 0.682192
-0.266504 0.100679 1.243688 -0.435637 0.723709 0.535226
-0.264733 0.100907 1.246500 -0.721352 0.558794 0.409146
-0.262924 0.101125 1.249187 -0.684103 0.602118 0.411653
-0.260701 0.101185 1.249938 -0.243191 0.707581 0.663466
-0.258256 0.101160 1.249625 0.10497 0.628921 0.77035
-0.255940 0.101185 1.249938 -0.101726 0.7105 0.696306
-0.253622 0.101211 1.250250 -0.0889522 0.798708 0.595108
-0.251128 0.101165 1.249688 0.138076 0.826684 0.545462
-0.248424 0.101034 1.248062 0.326821 0.815435 0.47776
-0.244506 0.100401 1.240250 0.753506 0.567519 0.33189
-0.238496 0.098888 1.221563 0.921005 0.277084 0.273814
-0.232713 0.097441 1.203688 0.951237 0.0573251 0.303088
-0.228889 0.096794 1.195688 0.880286 -0.1872 0.435949
-0.225640 0.096379 1.190562 0.825646 -0.17206 0.537312
-0.222375 0.095949 1.185250 0.846359 -0.0800593 0.526562
-0.219329 0.095605 1.181000 0.79907 -0.141596 0.584326
-0.216344 0.095281 1.177000 0.778359 -0.195427 0.596629
-0.213420 0.094977 1.173250 0.753133 -0.252093 0.607651
-0.210690 0.094755 1.170500 0.615508 -0.449498 0.64738
-0.208104 0.094593 1.168500 0.488493 -0.551515 0.67617
-0.205526 0.094431 1.166500 0.54326 -0.40868 0.733382
-0.203043 0.094310 1.165000 0.462898 -0.386631 0.797648
-0.200522 0.094168 1.163250 0.481054 -0.482497 0.731973
-0.197752 0.093905 1.160000 0.67478 -0.417122 0.608836
-0.195037 0.093662 1.157000 0.649772 -0.435057 0.623316
-0.192542 0.093520 1.155250 0.488057 -0.472006 0.734174
-0.190094 0.093399 1.153750 0.479065 -0.340053 0.809234
-0.187744 0.093323 1.152812 0.338995 -0.339548 0.877376
-0.185397 0.093247 1.151875 0.33938 -0.339933 0.877078
-0.182994 0.093141 1.150563 0.470426 -0.134617 0.872111
-0.180714 0.093095 1.150000 0.239553 0 0.970883
-0.147929 0.093141 1.150563 -0.249761 -0.16648 0.953889
-0.145809 0.093186 1.151125 -0.236914 -0.315955 0.918719
-0.143570 0.093156 1.150750 0.157328 -0.236262 0.958868
-0.141424 0.093186 1.151125 -0.163483 -0.245292 0.955565
-0.139390 0.093293 1.152437 -0.520341 -0.222831 0.824373
-0.137262 0.093338 1.153000 -0.252963 -0.0842919 0.963797
-0.132898 0.093358 1.153250 -0.107846 -0.269729 0.956878
-0.130815 0.093439 1.154250 -0.37371 -0.443856 0.814452
-0.128784 0.093561 1.155750 -0.496297 -0.496297 0.712305
-0.126774 0.093702 1.157500 -0.5575 -0.477759 0.678926
-0.124757 0.093844 1.159250 -0.532941 -0.532943 0.657225
-0.122655 0.093925 1.160250 -0.331427 -0.580412 0.743827
-0.120523 0.093986 1.161000 -0.281209 -0.468852 0.837316
-0.118439 0.094087 1.162250 -0.444728 -0.444728 0.777453
-0.116375 0.094208 1.163750 -0.514527 -0.428689 0.742623
-0.114256 0.094289 1.164750 -0.411279 -0.205551 0.888031
-0.112086 0.094330 1.165250 -0.221135 -0.110545 0.968958
-0.109984 0.094431 1.166500 -0.494085 -0.19749 0.846687
-0.107993 0.094633 1.169000 -0.753106 -0.225609 0.618007
-0.106083 0.094917 1.172500 -0.828399 -0.2953 0.475976
-0.104204 0.095240 1.176500 -0.848159 -0.317391 0.424134
-0.102223 0.095483 1.179500 -0.777386 -0.323434 0.539501
-0.100167 0.095665 1.181750 -0.707867 -0.235668 0.665871
-0.098103 0.095848 1.184000 -0.706576 -0.235251 0.667388
-0.095949 0.095949 1.185250 -0.454709 -0.363699 0.812996
-0.093810 0.096070 1.186750 -0.524544 -0.349562 0.776312
-0.091800 0.096333 1.190000 -0.814302 -0.250093 0.523798
-0.089886 0.096713 1.194687 -0.873728 -0.302109 0.381222
-0.088137 0.097295 1.201875 -0.915296 -0.317115 0.248336
-0.086496 0.098028 1.210938 -0.954397 -0.229059 0.191462
-0.084697 0.098620 1.218250 -0.957764 -0.146594 0.247381
-0.082630 0.098924 1.222000 -0.875189 -0.0145348 0.483562
-0.080418 0.099065 1.223750 -0.592979 0.3592 0.72066
-0.078219 0.099232 1.225813 -0.564446 0.613568 0.552209
-0.076000 0.099384 1.227687 -0.448947 0.760113 0.46976
-0.073748 0.099501 1.229125 -0.341783 0.814055 0.469573
-0.071508 0.099642 1.230875 -0.396739 0.804167 0.442622
-0.069199 0.099693 1.231500 -0.1255 0.91228 0.389865
-0.066826 0.099652 1.231000 0.0841554 0.942652 0.322994
-0.064435 0.099582 1.230125 0.134528 0.947256 0.290875
-0.062086 0.099571 1.230000 0.0178187 0.966292 0.256832
-0.059846 0.099743 1.232125 -0.300791 0.922385 0.242346
-0.057563 0.099855 1.233500 -0.233967 0.920162 0.313945
-0.055119 0.099683 1.231375 0.347956 0.877801 0.329229
-0.052645 0.099440 1.228375 0.396673 0.881611 0.25576
-0.050236 0.099303 1.226688 0.229653 0.940155 0.251731
-0.047828 0.099157 1.224875 0.263801 0.924388 0.275529
-0.282959 0.103002 1.243125 0.140748 0.931278 0.336024
-0.279900 0.102748 1.240062 0.476541 0.776821 0.411653
-0.276754 0.102458 1.236562 0.701104 0.388603 0.597864
-0.274510 0.102499 1.237062 -0.2178 0.136074 0.966461
-0.272676 0.102696 1.239437 -0.728248 0.439429 0.525887
-0.270479 0.102758 1.240188 -0.254685 0.677588 0.689935
-0.268157 0.102774 1.240375 -0.0661878 0.638721 0.766587
-0.266049 0.102872 1.241562 -0.38252 0.682723 0.622549
-0.264242 0.103090 1.244187 -0.682117 0.598548 0.420067
-0.262451 0.103318 1.246938 -0.706251 0.575522 0.412291
-0.260297 0.103406 1.248000 -0.357398 0.650151 0.6705
-0.250525 0.103297 1.246688 0.323868 0.739277 0.590405
-0.247516 0.103033 1.243500 0.518074 0.740725 0.427698
-0.243632 0.102396 1.235813 0.80476 0.465751 0.368017
-0.238203 0.101091 1.220062 0.943793 0.0909305 0.317785
-0.233051 0.099879 1.205438 0.934148 -0.113292 0.338426
-0.229439 0.099309 1.198563 0.81876 -0.345183 0.458781
-0.225995 0.098802 1.192438 0.833196 -0.25678 0.489744
-0.222469 0.098248 1.185750 0.880362 -0.0662095 0.469658
-0.219329 0.097854 1.181000 0.834147 0 0.551542
-0.216390 0.097544 1.177250 0.783897 -0.0524318 0.618673
-0.213602 0.097295 1.174250 0.702229 -0.234885 0.672089
-0.211050 0.097150 1.172500 0.459966 -0.527355 0.714372
-0.208550 0.097026 1.171000 0.376439 -0.629553 0.679674
-0.205879 0.096819 1.168500 0.583915 -0.468921 0.662688
-0.203261 0.096632 1.166250 0.600427 -0.334581 0.726322
-0.200695 0.096466 1.164250 0.576769 -0.289152 0.764022
-0.197965 0.096218 1.161250 0.695611 -0.290909 0.656884
-0.195332 0.096011 1.158750 0.605309 -0.425305 0.672843
-0.192833 0.095866 1.157000 0.482871 -0.484303 0.729579
-0.190300 0.095700 1.155000 0.565092 -0.354186 0.745133
-0.187896 0.095596 1.153750 0.426205 -0.320238 0.846048
-0.185528 0.095508 1.152688 0.382228 -0.292812 0.876449
-0.183114 0.095394 1.151312 0.469207 -0.256372 0.845055
-0.180803 0.095332 1.150563 0.295582 -0.221972 0.929171
-0.178553 0.095301 1.150187 0.162788 -0.0814345 0.983295
-0.176333 0.095286 1.150000 0.0841826 0 0.99645
-0.154454 0.095301 1.150187 -0.0853549 -0.0853549 0.992688
-0.152313 0.095332 1.150563 -0.163776 -0.245704 0.955409
-0.147978 0.095363 1.150938 -0.167564 -0.167562 0.971517
-0.145857 0.095410 1.151500 -0.249334 -0.166229 0.954044
-0.143640 0.095394 1.151312 0.0801416 -0.24053 0.967328
-0.141516 0.095441 1.151875 -0.2365 -0.315384 0.919021
-0.139435 0.095519 1.152812 -0.400511 -0.160147 0.902189
-0.137262 0.095534 1.153000 -0.085954 0 0.996299
-0.135095 0.095555 1.153250 -0.112808 -0.112807 0.987192
-0.133014 0.095638 1.154250 -0.386803 -0.386803 0.837118
-0.130985 0.095762 1.155750 -0.496302 -0.496297 0.712302
-0.128923 0.095866 1.157000 -0.447112 -0.447114 0.774713
-0.126883 0.095990 1.158500 -0.538704 -0.358951 0.762202
-0.124865 0.096135 1.160250 -0.6011 -0.343239 0.72171
-0.122734 0.096197 1.161000 -0.307915 -0.307916 0.900209
-0.120601 0.096259 1.161750 -0.307551 -0.30755 0.900458
-0.118566 0.096404 1.163500 -0.577124 -0.412025 0.705098
-0.116500 0.096529 1.165000 -0.513915 -0.428136 0.743365
-0.114355 0.096591 1.165750 -0.293553 -0.391472 0.87211
-0.112206 0.096653 1.166500 -0.279535 -0.466135 0.839392
-0.110126 0.096777 1.168000 -0.490266 -0.490266 0.72061
-0.108132 0.096984 1.170500 -0.693863 -0.415954 0.587823
-0.106196 0.097254 1.173750 -0.805564 -0.309308 0.505366
-0.104271 0.097544 1.177250 -0.854905 -0.182783 0.485519
-0.102288 0.097792 1.180250 -0.809334 -0.201964 0.551534
-0.100231 0.097979 1.182500 -0.707431 -0.235498 0.666395
-0.098144 0.098144 1.184500 -0.675044 -0.168537 0.71827
-0.096030 0.098289 1.186250 -0.586951 -0.335165 0.736989
-0.093928 0.098455 1.188250 -0.597574 -0.447966 0.665005
-0.091896 0.098704 1.191250 -0.771589 -0.320997 0.549191
-0.089985 0.099097 1.196000 -0.892012 -0.245766 0.379359
-0.088220 0.099677 1.203000 -0.955204 -0.152762 0.253473
-0.086500 0.100340 1.211000 -0.977502 -0.00758296 0.210791
-0.084663 0.100899 1.217750 -0.963932 0.0709881 0.256505
-0.082580 0.101189 1.221250 -0.851575 0.181826 0.491691
-0.080336 0.101293 1.222500 -0.450406 0.449529 0.7714
-0.078103 0.101417 1.224000 -0.477772 0.575774 0.66349
-0.075864 0.101541 1.225500 -0.447393 0.650477 0.613775
-0.073579 0.101609 1.226313 -0.227646 0.785665 0.575246
-0.071279 0.101661 1.226938 -0.140899 0.884325 0.445103
-0.068918 0.101624 1.226500 0.0815183 0.92817 0.36312
-0.066500 0.101500 1.225000 0.232338 0.92594 0.297749
-0.064111 0.101412 1.223938 0.162746 0.943785 0.287723
-0.061802 0.101448 1.224375 -0.0740239 0.947107 0.312265
-0.059570 0.101619 1.226437 -0.328963 0.901471 0.281307
-0.057283 0.101707 1.227500 -0.168144 0.944081 0.283616
-0.054853 0.101536 1.225438 0.314339 0.902089 0.295679
-0.052385 0.101277 1.222312 0.44101 0.853498 0.277581
-0.049990 0.101143 1.220688 0.250759 0.922609 0.293109
-0.047621 0.101049 1.219563 0.195771 0.921318 0.335928
-0.281607 0.104866 1.237188 0.204074 0.919748 0.335288
-0.278941 0.104750 1.235813 0.273937 0.844755 0.459725
-0.276461 0.104702 1.235250 0.203422 0.474322 0.856527
-0.274330 0.104787 1.236250 -0.41134 0.333669 0.848212
-0.272140 0.104850 1.237000 -0.232455 0.753586 0.614876
-0.269893 0.104893 1.237500 -0.147328 0.789934 0.59523
-0.267752 0.104978 1.238500 -0.344446 0.644324 0.682791
-0.265567 0.105046 1.239313 -0.261201 0.721518 0.641238
-0.263578 0.105195 1.241063 -0.441275 0.784893 0.434993
-0.261819 0.105439 1.243937 -0.65192 0.67707 0.341434
-0.259750 0.105560 1.245375 -0.409451 0.745226 0.526296
-0.255069 0.105587 1.245687 -0.0993743 0.73395 0.671894
-0.252760 0.105613 1.246000 -0.106195 0.678246 0.727121
-0.249784 0.105359 1.243000 0.550681 0.676506 0.488968
-0.246098 0.104798 1.236375 0.64927 0.697984 0.302105
-0.242584 0.104300 1.230500 0.691679 0.625749 0.36058
-0.238508 0.103547 1.221625 0.892088 -0.158398 0.423189
-0.233728 0.102472 1.208938 0.898569 -0.251211 0.359815
-0.229738 0.101725 1.200125 0.894106 -0.159889 0.418342
-0.226232 0.101179 1.193688 0.859666 -0.168007 0.48244
-0.222657 0.100591 1.186750 0.877233 -0.127303 0.462879
-0.219421 0.100146 1.181500 0.845452 -0.0809047 0.527888
-0.216574 0.099871 1.178250 0.723625 -0.223443 0.653024
-0.213920 0.099680 1.176000 0.562504 -0.439 0.70062
-0.211365 0.099532 1.174250 0.47711 -0.478528 0.737141
-0.208817 0.099383 1.172500 0.495268 -0.425699 0.757291
-0.206187 0.099193 1.170250 0.564844 -0.440863 0.697561
-0.203522 0.098981 1.167750 0.618988 -0.372664 0.691358
-0.200781 0.098726 1.164750 0.727573 -0.12161 0.675166
-0.198051 0.098472 1.161750 0.728933 -0.121845 0.673655
-0.195585 0.098345 1.160250 0.447497 -0.448619 0.77362
-0.193208 0.098260 1.159250 0.280747 -0.633526 0.720989
-0.190753 0.098133 1.157750 0.362738 -0.667472 0.65031
-0.188304 0.098006 1.156250 0.379404 -0.634545 0.673354
-0.185830 0.097863 1.154562 0.462385 -0.515319 0.721558
-0.183451 0.097768 1.153437 0.320069 -0.606297 0.727983
-0.181127 0.097699 1.152625 0.242951 -0.618229 0.747508
-0.178737 0.097593 1.151375 0.412518 -0.392774 0.821923
-0.176448 0.097540 1.150750 0.245354 -0.294795 0.923524
-0.172036 0.097524 1.150563 0.0799985 -0.240152 0.967433
-0.169790 0.097492 1.150187 0.162962 -0.0815219 0.983259
-0.167571 0.097476 1.150000 0.0842365 0 0.996446
-0.154479 0.097508 1.150375 -0.17075 -0.085361 0.98161
-0.152387 0.097572 1.151125 -0.32105 -0.240736 0.915955
-0.145857 0.097603 1.151500 -0.17222 0 0.985058
-0.141562 0.097667 1.152250 -0.327271 -0.163582 0.930663
-0.139488 0.097752 1.153250 -0.420789 -0.184019 0.888298
-0.137351 0.097794 1.153750 -0.210228 -0.31541 0.925376
-0.135241 0.097858 1.154500 -0.282767 -0.471456 0.835327
-0.133186 0.097964 1.155750 -0.426867 -0.512343 0.745177
-0.131098 0.098048 1.156750 -0.385702 -0.385701 0.838134
-0.129006 0.098133 1.157750 -0.401354 -0.300963 0.865064
-0.126993 0.098281 1.159500 -0.601514 -0.343517 0.721233
-0.124919 0.098387 1.160750 -0.49836 -0.199242 0.843765
-0.122734 0.098409 1.161000 -0.113691 0 0.993516
-0.120627 0.098493 1.162000 -0.422772 -0.105626 0.90006
-0.118643 0.098684 1.164250 -0.718159 -0.239092 0.653516
-0.116625 0.098854 1.166250 -0.630252 -0.393668 0.669184
-0.114526 0.098960 1.167500 -0.401825 -0.562779 0.722369
-0.112399 0.099044 1.168500 -0.311806 -0.624181 0.716362
-0.110314 0.099171 1.170000 -0.445571 -0.594335 0.669501
-0.108317 0.099383 1.172500 -0.646744 -0.517156 0.5606
-0.106332 0.099616 1.175250 -0.728082 -0.396711 0.559033
-0.104315 0.099828 1.177750 -0.762822 -0.152297 0.628417
-0.102310 0.100061 1.180500 -0.802947 -0.0728373 0.591583
-0.100252 0.100252 1.182750 -0.732031 -0.0811953 0.676416
-0.098144 0.100400 1.184500 -0.638771 0 0.769397
-0.096070 0.100591 1.186750 -0.719083 -0.159583 0.676352
-0.093968 0.100761 1.188750 -0.672316 -0.167898 0.720973
-0.091877 0.100951 1.191000 -0.733555 0.0813327 0.674746
-0.090022 0.101418 1.196500 -0.941908 -0.0852652 0.324869
-0.088312 0.102075 1.204250 -0.961962 -0.154318 0.22542
-0.086496 0.102641 1.210938 -0.9652 0.00896577 0.26136
-0.084545 0.103076 1.216063 -0.901067 0.295014 0.317877
-0.082415 0.103309 1.218812 -0.66388 0.585981 0.464639
-0.080184 0.103425 1.220188 -0.408153 0.684309 0.604262
-0.077959 0.103558 1.221750 -0.458547 0.658247 0.59703
-0.075694 0.103643 1.222750 -0.281152 0.770873 0.571584
-0.073380 0.103664 1.223000 -0.064345 0.849713 0.523305
-0.068679 0.103600 1.222250 0.157873 0.891995 0.423582
-0.066269 0.103473 1.220750 0.303453 0.857854 0.414733
-0.063905 0.103410 1.220000 0.167221 0.875682 0.45301
-0.061619 0.103473 1.220750 -0.179123 0.862734 0.472868
-0.059366 0.103600 1.222250 -0.311228 0.864799 0.39403
-0.057050 0.103621 1.222500 -0.0468742 0.933596 0.355247
-0.054640 0.103468 1.220688 0.332172 0.86846 0.36802
-0.052224 0.103288 1.218562 0.443624 0.781812 0.438142
-0.049844 0.103166 1.217125 0.329482 0.815146 0.476423
-0.047477 0.103060 1.215875 0.284319 0.837047 0.467457
-0.280768 0.106903 1.233500 0.276238 0.813277 0.512126
-0.278306 0.106860 1.233000 0.138371 0.776951 0.614167
-0.276013 0.106882 1.233250 -0.0855403 0.683108 0.725291
-0.273830 0.106947 1.234000 -0.242634 0.726218 0.643223
-0.271645 0.107012 1.234750 -0.242535 0.725764 0.643773
-0.269402 0.107055 1.235250 -0.162336 0.728923 0.66507
-0.267157 0.107098 1.235750 -0.145536 0.798422 0.584244
-0.264857 0.107120 1.236000 -0.0644839 0.852028 0.519509
-0.262782 0.107234 1.237313 -0.303216 0.862724 0.404682
-0.261109 0.107515 1.240563 -0.667024 0.688953 0.28359
-0.259150 0.107683 1.242500 -0.502206 0.742395 0.44344
-0.254545 0.107737 1.243125 -0.188511 0.770913 0.608405
-0.252202 0.107748 1.243250 -0.0361377 0.79292 0.608253
-0.248955 0.107369 1.238875 0.655738 0.618397 0.43312
-0.245090 0.106714 1.231313 0.777302 0.521388 0.352075
-0.241660 0.106237 1.225813 0.701956 0.598652 0.385841
-0.238190 0.105733 1.220000 0.843172 0.236526 0.482821
-0.234151 0.104964 1.211125 0.880745 -0.219071 0.419875
-0.230301 0.104265 1.203063 0.846755 -0.311346 0.431358
-0.226860 0.103740 1.197000 0.771111 -0.424637 0.474417
-0.223231 0.103117 1.189813 0.822396 -0.353441 0.445807
-0.219700 0.102527 1.183000 0.864458 -0.191676 0.464729
-0.216803 0.102223 1.179500 0.732064 -0.262515 0.628624
-0.214193 0.102050 1.177500 0.538851 -0.405348 0.738466
-0.211590 0.101877 1.175500 0.556336 -0.348688 0.754259
-0.208950 0.101682 1.173250 0.625385 -0.208978 0.751812
-0.206319 0.101487 1.171000 0.626492 -0.209356 0.750785
-0.203653 0.101270 1.168500 0.661674 -0.199032 0.722892
-0.200867 0.100988 1.165250 0.749162 -0.115623 0.652217
-0.198179 0.100750 1.162500 0.693798 -0.18981 0.694706
-0.195754 0.100642 1.161250 0.419577 -0.336325 0.843113
-0.193458 0.100598 1.160750 0.1726 -0.518736 0.83733
-0.191165 0.100555 1.160250 0.139586 -0.699604 0.700764
-0.188751 0.100447 1.159000 0.310408 -0.685312 0.658782
-0.186262 0.100295 1.157250 0.415292 -0.640251 0.646228
-0.183939 0.100230 1.156500 0.183486 -0.751634 0.633545
-0.181588 0.100149 1.155563 0.231805 -0.728807 0.644288
-0.179135 0.100008 1.153937 0.401076 -0.634717 0.66051
-0.176793 0.099927 1.153000 0.266145 -0.640538 0.720332
-0.174521 0.099883 1.152500 0.164838 -0.578098 0.799144
-0.172205 0.099813 1.151688 0.291693 -0.404541 0.866754
-0.169845 0.099715 1.150563 0.421316 -0.140637 0.895943
-0.167571 0.099667 1.150000 0.240192 0 0.970725
-0.154479 0.099699 1.150375 -0.17261 0 0.98499
-0.152387 0.099764 1.151125 -0.337465 0 0.941338
-0.150219 0.099780 1.151312 -0.0852183 -0.0852183 0.992711
-0.148050 0.099797 1.151500 -0.0836758 -0.167381 0.982335
-0.145904 0.099829 1.151875 -0.167279 -0.167277 0.971615
-0.141616 0.099900 1.152688 -0.349741 -0.188254 0.917737
-0.139609 0.100035 1.154250 -0.558664 -0.357393 0.748442
-0.137560 0.100143 1.155500 -0.406103 -0.568813 0.715215
-0.135446 0.100208 1.156250 -0.253384 -0.591782 0.765239
-0.133302 0.100252 1.156750 -0.200305 -0.400783 0.894008
-0.131155 0.100295 1.157250 -0.217299 -0.217299 0.951611
-0.129090 0.100403 1.158500 -0.484295 -0.290451 0.825286
-0.127075 0.100555 1.160250 -0.620654 -0.265748 0.737677
-0.124946 0.100620 1.161000 -0.327309 -0.109039 0.938605
-0.122761 0.100642 1.161250 -0.111858 -0.111858 0.987409
-0.120679 0.100750 1.162500 -0.496848 -0.198637 0.844799
-0.118719 0.100967 1.165000 -0.756907 -0.22672 0.612936
-0.116750 0.101183 1.167500 -0.717988 -0.358611 0.596566
-0.114673 0.101313 1.169000 -0.490046 -0.490048 0.720908
-0.112567 0.101422 1.170250 -0.400794 -0.561376 0.724031
-0.110503 0.101573 1.172000 -0.503698 -0.575808 0.643998
-0.108478 0.101768 1.174250 -0.62747 -0.48783 0.60688
-0.106445 0.101963 1.176500 -0.672086 -0.373042 0.63964
-0.104381 0.102137 1.178500 -0.663268 -0.24847 0.70593
-0.102310 0.102310 1.180500 -0.694592 0 0.719404
-0.100189 0.102440 1.182000 -0.565347 0.282115 0.775109
-0.098082 0.102592 1.183750 -0.626978 0.26812 0.731444
-0.096070 0.102852 1.186750 -0.830528 0 0.556977
-0.094027 0.103090 1.189500 -0.775744 -0.211202 0.594656
-0.091998 0.103355 1.192562 -0.753931 -0.384172 0.532916
-0.090220 0.103924 1.199125 -0.893621 -0.356282 0.272957
-0.088481 0.104569 1.206563 -0.926972 -0.286997 0.241569
-0.086504 0.104959 1.211063 -0.914454 -0.0253201 0.403897
-0.084398 0.105208 1.213938 -0.708974 0.521881 0.474338
-0.082216 0.105376 1.215875 -0.48393 0.730747 0.481478
-0.079999 0.105506 1.217375 -0.400852 0.748936 0.527649
-0.077772 0.105630 1.218812 -0.377122 0.767933 0.517743
-0.075504 0.105706 1.219687 -0.233061 0.813081 0.533462
-0.073200 0.105733 1.220000 -0.0859255 0.822502 0.562235
-0.068521 0.105685 1.219437 0.158113 0.789044 0.593642
-0.066137 0.105587 1.218313 0.325907 0.705382 0.629461
-0.063787 0.105538 1.217750 0.177799 0.710171 0.681208
-0.061480 0.105560 1.218000 -0.0725949 0.796244 0.600604
-0.059184 0.105603 1.218500 -0.117505 0.878299 0.463447
-0.054492 0.105506 1.217375 0.276572 0.812908 0.512532
-0.052109 0.105376 1.215875 0.399716 0.715444 0.573033
-0.049744 0.105273 1.214687 0.343141 0.703602 0.622253
-0.047387 0.105175 1.213562 0.335293 0.688568 0.643003
-0.280412 0.109114 1.231938 0.273389 0.525396 0.80574
-0.277868 0.109037 1.231063 0.274748 0.607859 0.744997
-0.273373 0.109114 1.231938 -0.29373 0.690697 0.660802
-0.271205 0.109186 1.232750 -0.27697 0.680188 0.678699
-0.268911 0.109209 1.233000 -0.0811388 0.728809 0.679893
-0.262131 0.109319 1.234250 -0.332128 0.810959 0.481701
-0.260425 0.109591 1.237313 -0.655163 0.691729 0.303765
-0.258446 0.109751 1.239125 -0.434423 0.805556 0.402934
-0.256034 0.109729 1.238875 0.059744 0.864008 0.499922
-0.253687 0.109734 1.238937 -0.013524 0.903606 0.428152
-0.251124 0.109646 1.237937 0.173007 0.915889 0.362237
-0.247887 0.109258 1.233562 0.590046 0.715952 0.373173
-0.244530 0.108810 1.228500 0.770002 0.428558 0.472689
-0.241401 0.108456 1.224500 0.772627 0.254089 0.581796
-0.238093 0.108013 1.219500 0.834419 0.083759 0.544728
-0.234646 0.107498 1.213688 0.791347 -0.351296 0.50036
-0.231306 0.107022 1.208313 0.635856 -0.626548 0.450695
-0.227914 0.106513 1.202562 0.644032 -0.628905 0.435547
-0.224005 0.105749 1.193938 0.822079 -0.397387 0.407762
-0.220071 0.104957 1.185000 0.889896 -0.200979 0.409502
-0.216941 0.104536 1.180250 0.822501 -0.130489 0.553592
-0.214284 0.104337 1.178000 0.633547 -0.141099 0.760729
-0.211725 0.104182 1.176250 0.539549 -0.231711 0.809443
-0.209084 0.103983 1.174000 0.624993 -0.208879 0.752166
-0.206363 0.103739 1.171250 0.706553 -0.06439 0.704725
-0.203653 0.103496 1.168500 0.712242 0 0.701934
-0.200953 0.103252 1.165750 0.70202 -0.128023 0.700555
-0.198349 0.103053 1.163500 0.616522 -0.274743 0.737846
-0.195838 0.102898 1.161750 0.557756 -0.159653 0.814505
-0.193500 0.102831 1.161000 0.301314 -0.100525 0.948211
-0.188955 0.102765 1.160250 0.263452 -0.439776 0.858598
-0.186584 0.102676 1.159250 0.294664 -0.590888 0.751016
-0.184336 0.102654 1.159000 0.070868 -0.710441 0.70018
-0.181971 0.102566 1.158000 0.270778 -0.66195 0.698929
-0.179533 0.102433 1.156500 0.37533 -0.643444 0.667163
-0.177177 0.102344 1.155500 0.267857 -0.671741 0.690664
-0.174786 0.102234 1.154250 0.374837 -0.526123 0.763342
-0.172354 0.102095 1.152688 0.499083 -0.320147 0.805247
-0.169928 0.101957 1.151125 0.524061 -0.188974 0.830451
-0.167599 0.101874 1.150187 0.37007 -0.0740981 0.926044
-0.165381 0.101857 1.150000 0.08425 0 0.996445
-0.154504 0.101907 1.150563 -0.254262 -0.0847251 0.963417
-0.152461 0.102007 1.151688 -0.46081 -0.230317 0.857093
-0.150341 0.102056 1.152250 -0.228693 -0.381275 0.895728
-0.148171 0.102073 1.152437 -0.0765405 -0.383143 0.920512
-0.145999 0.102090 1.152625 -0.0791969 -0.316895 0.945148
-0.143835 0.102112 1.152875 -0.100892 -0.403825 0.909256
-0.141785 0.102217 1.154063 -0.419386 -0.485643 0.766985
-0.139791 0.102366 1.155750 -0.544054 -0.483522 0.68572
-0.137738 0.102477 1.157000 -0.426478 -0.511888 0.745713
-0.135622 0.102544 1.157750 -0.267316 -0.534939 0.801488
-0.133446 0.102566 1.158000 -0.0954499 -0.477701 0.873322
-0.131297 0.102610 1.158500 -0.190044 -0.475415 0.85899
-0.129229 0.102721 1.159750 -0.445609 -0.445609 0.776444
-0.127157 0.102831 1.161000 -0.482995 -0.289693 0.826313
-0.125026 0.102898 1.161750 -0.30739 -0.307388 0.900569
-0.122893 0.102964 1.162500 -0.280244 -0.467245 0.838538
-0.120834 0.103097 1.164000 -0.491808 -0.491808 0.718505
-0.118872 0.103319 1.166500 -0.696434 -0.417515 0.583662
-0.116900 0.103540 1.169000 -0.695373 -0.41686 0.585392
-0.114820 0.103673 1.170500 -0.489387 -0.489387 0.721803
-0.112735 0.103806 1.172000 -0.466649 -0.544532 0.696939
-0.110691 0.103983 1.174000 -0.55614 -0.556142 0.617588
-0.108617 0.104138 1.175750 -0.548374 -0.469941 0.691695
-0.106536 0.104293 1.177500 -0.590967 -0.337498 0.732702
-0.104470 0.104470 1.179500 -0.644192 -0.321806 0.693871
-0.102332 0.104581 1.180750 -0.498319 -0.0995689 0.861257
-0.100167 0.104669 1.181750 -0.420674 0.105045 0.90111
-0.098124 0.104891 1.184250 -0.758649 -0.151464 0.633648
-0.096171 0.105223 1.188000 -0.841208 -0.279793 0.462694
-0.094205 0.105555 1.191750 -0.768654 -0.460613 0.443855
-0.092297 0.105970 1.196437 -0.722977 -0.597265 0.347246
-0.090521 0.106563 1.203125 -0.828309 -0.49432 0.263728
-0.088619 0.107033 1.208437 -0.885496 -0.311631 0.344648
-0.086500 0.107260 1.211000 -0.771364 0.0187984 0.636116
-0.084332 0.107437 1.213000 -0.65865 0.307969 0.686538
-0.082111 0.107553 1.214313 -0.450339 0.534843 0.714939
-0.079822 0.107587 1.214687 -0.110396 0.78938 0.603898
-0.077552 0.107647 1.215375 -0.171461 0.854445 0.490433
-0.075330 0.107780 1.216875 -0.400884 0.748997 0.527537
-0.073065 0.107858 1.217750 -0.27569 0.707127 0.651127
-0.068377 0.107780 1.216875 0.253625 0.741738 0.620885
-0.065964 0.107625 1.215125 0.415493 0.755914 0.505925
-0.063617 0.107570 1.214500 0.160573 0.833145 0.529231
-0.061329 0.107614 1.215000 -0.137168 0.820513 0.554927
-0.056677 0.107570 1.214500 0.111554 0.88973 0.442648
-0.054338 0.107520 1.213938 0.139662 0.851586 0.505269
-0.051999 0.107465 1.213313 0.185121 0.757789 0.625688
-0.049655 0.107393 1.212500 0.256173 0.688881 0.678099
-0.047306 0.107304 1.211500 0.317191 0.653665 0.687104
-0.280000 0.111297 1.230125 0.207592 0.60145 0.771468
-0.277375 0.111184 1.228875 0.35737 0.624967 0.694048
-0.272971 0.111297 1.230125 -0.430223 0.622345 0.653907
-0.270765 0.111354 1.230750 -0.2147 0.685586 0.695612
-0.263679 0.111331 1.230500 0.0753458 0.752151 0.654669
-0.261282 0.111308 1.230250 0.0557449 0.889241 0.45403
-0.259149 0.111399 1.231250 -0.158409 0.954818 0.251454
-0.257064 0.111512 1.232500 -0.182095 0.959055 0.216921
-0.254613 0.111467 1.232000 0.0704331 0.963547 0.258102
-0.252113 0.111399 1.231250 0.0950362 0.968731 0.229193
-0.249540 0.111297 1.230125 0.139399 0.962736 0.231747
-0.246631 0.111043 1.227312 0.389086 0.862222 0.324322
-0.243796 0.110816 1.224813 0.489514 0.721352 0.489926
-0.240946 0.110579 1.222188 0.598811 0.527645 0.602508
-0.237824 0.110211 1.218125 0.776365 0.26334 0.572635
-0.234840 0.109900 1.214687 0.72821 -0.212602 0.651545
-0.231916 0.109612 1.211500 0.574744 -0.577801 0.579497
-0.228530 0.109097 1.205812 0.755836 -0.435107 0.489279
-0.224510 0.108266 1.196625 0.876087 -0.258813 0.406801
-0.220408 0.107378 1.186813 0.90391 -0.168605 0.393088
-0.217079 0.106852 1.181000 0.857988 -0.111314 0.501464
-0.214375 0.106626 1.178500 0.666672 -0.133703 0.733261
-0.211860 0.106490 1.177000 0.487041 -0.244008 0.838601
-0.209306 0.106332 1.175250 0.510619 -0.365671 0.778172
-0.206583 0.106083 1.172500 0.663437 -0.302595 0.684315
-0.203784 0.105789 1.169250 0.738758 -0.171085 0.651894
-0.201039 0.105518 1.166250 0.72689 -0.121501 0.67592
-0.198477 0.105337 1.164250 0.590167 -0.221858 0.776197
-0.195964 0.105179 1.162500 0.545615 -0.234366 0.804597
-0.193542 0.105065 1.161250 0.453298 -0.0907679 0.886726
-0.191289 0.105043 1.161000 0.110274 0 0.993901
-0.189036 0.105020 1.160750 0.105722 -0.21163 0.971615
-0.186785 0.104998 1.160500 0.0930374 -0.465825 0.879972
-0.182246 0.104930 1.159750 0.239312 -0.559548 0.793496
-0.179805 0.104794 1.158250 0.43134 -0.504643 0.747851
-0.177407 0.104681 1.157000 0.390567 -0.469749 0.791703
-0.175014 0.104568 1.155750 0.390989 -0.470342 0.791143
-0.172560 0.104415 1.154063 0.499872 -0.408363 0.763785
-0.170103 0.104257 1.152313 0.526318 -0.358074 0.771214
-0.167735 0.104149 1.151125 0.411983 -0.325818 0.850948
-0.165489 0.104115 1.150750 0.152286 -0.304965 0.940109
-0.154605 0.104166 1.151312 -0.236619 -0.315559 0.918931
-0.152561 0.104268 1.152437 -0.448643 -0.298983 0.842216
-0.150439 0.104319 1.153000 -0.236178 -0.314906 0.919268
-0.148275 0.104342 1.153250 -0.10443 -0.339599 0.934755
-0.146142 0.104387 1.153750 -0.195906 -0.441054 0.875838
-0.144069 0.104477 1.154750 -0.323599 -0.607191 0.725674
-0.142084 0.104636 1.156500 -0.469827 -0.654789 0.592042
-0.140033 0.104749 1.157750 -0.384805 -0.616059 0.687311
-0.137917 0.104817 1.158500 -0.26706 -0.534507 0.801861
-0.135827 0.104907 1.159500 -0.331148 -0.579861 0.74438
-0.133676 0.104952 1.160000 -0.160537 -0.643014 0.74884
-0.131495 0.104975 1.160250 -0.0852069 -0.597263 0.797507
-0.129369 0.105043 1.161000 -0.280663 -0.467942 0.838009
-0.127294 0.105156 1.162250 -0.444434 -0.444437 0.777788
-0.125215 0.105269 1.163500 -0.402681 -0.564033 0.720913
-0.123078 0.105337 1.164250 -0.251436 -0.587135 0.76945
-0.120990 0.105450 1.165500 -0.422395 -0.506975 0.751371
-0.119050 0.105699 1.168250 -0.709535 -0.451147 0.541319
-0.117100 0.105948 1.171000 -0.685394 -0.498134 0.531128
-0.114992 0.106061 1.172250 -0.40005 -0.560295 0.725279
-0.112880 0.106174 1.173500 -0.419726 -0.503776 0.75501
-0.110833 0.106355 1.175500 -0.602751 -0.451851 0.657664
-0.108709 0.106468 1.176750 -0.457513 -0.365934 0.810416
-0.106581 0.106581 1.178000 -0.488931 -0.195429 0.850149
-0.104514 0.106762 1.180000 -0.6777 -0.1692 0.715607
-0.102353 0.106852 1.181000 -0.414162 -0.103463 0.904304
-0.100167 0.106920 1.181750 -0.324555 0 0.945867
-0.098124 0.107146 1.184250 -0.774198 0 0.632944
-0.096192 0.107508 1.188250 -0.897076 -0.0558865 0.438328
-0.094309 0.107944 1.193063 -0.895549 -0.243519 0.372412
-0.092485 0.108470 1.198875 -0.877552 -0.366968 0.308605
-0.090667 0.109029 1.205063 -0.912462 -0.284708 0.29386
-0.088660 0.109386 1.209000 -0.879323 -0.125278 0.459452
-0.086482 0.109544 1.210750 -0.627807 0.0895313 0.773203
-0.084280 0.109680 1.212250 -0.552715 0.275867 0.786386
-0.082022 0.109748 1.213000 -0.286417 0.500333 0.817088
-0.079679 0.109702 1.212500 0.161184 0.704079 0.691587
-0.077373 0.109708 1.212562 -0.0179692 0.80709 0.590156
-0.075164 0.109855 1.214188 -0.439363 0.724022 0.531745
-0.072915 0.109951 1.215250 -0.314185 0.737073 0.598341
-0.070586 0.109929 1.215000 0.0723938 0.794723 0.60264
-0.068198 0.109810 1.213688 0.325475 0.789207 0.520787
-0.065784 0.109640 1.211812 0.430933 0.760391 0.485903
-0.063460 0.109612 1.211500 0.0857515 0.821531 0.563678
-0.061202 0.109702 1.212500 -0.296913 0.740219 0.603256
-0.056537 0.109612 1.211500 0.264259 0.791504 0.551079
-0.054207 0.109567 1.211000 0.138127 0.80974 0.5703
-0.049583 0.109544 1.210750 0.0896369 0.62672 0.774072
-0.047257 0.109499 1.210250 0.193058 0.482392 0.854416
-0.279217 0.113323 1.226688 0.0156702 0.859876 0.510263
-0.276853 0.113311 1.226562 0.0395957 0.730956 0.681275
-0.272263 0.113346 1.226938 -0.0999412 0.846957 0.522184
-0.269995 0.113375 1.227250 -0.0779703 0.870696 0.485602
-0.262821 0.113305 1.226500 0.163599 0.870274 0.464606
-0.260060 0.113120 1.224500 0.309205 0.886223 0.344965
-0.257518 0.113028 1.223500 0.125227 0.96527 0.229285
-0.255344 0.113097 1.224250 -0.0898628 0.981363 0.169855
-0.252895 0.113045 1.223688 0.0665653 0.977647 0.199438
-0.250347 0.112947 1.222625 0.120544 0.972501 0.199276
-0.247955 0.112918 1.222312 0.0393168 0.976762 0.210689
-0.245338 0.112786 1.220875 0.209074 0.932499 0.294505
-0.242739 0.112659 1.219500 0.2345 0.903069 0.359827
-0.240145 0.112532 1.218125 0.285165 0.840711 0.460311
-0.237373 0.112318 1.215812 0.556963 0.556963 0.616104
-0.234719 0.112156 1.214062 0.548078 0.195929 0.813155
-0.231916 0.111920 1.211500 0.674717 0 0.738077
-0.228589 0.111423 1.206125 0.847247 -0.0495036 0.528888
-0.224674 0.110626 1.197500 0.903427 -0.0923785 0.418672
-0.220605 0.109737 1.187875 0.912916 -0.101681 0.395279
-0.217309 0.109217 1.182250 0.839759 -0.187701 0.509483
-0.214648 0.109010 1.180000 0.577739 -0.386345 0.718996
-0.212085 0.108848 1.178250 0.509304 -0.364689 0.779494
-0.209529 0.108686 1.176500 0.510075 -0.365244 0.77873
-0.206892 0.108478 1.174250 0.562782 -0.439218 0.70026
-0.204089 0.108178 1.171000 0.685996 -0.370963 0.625937
-0.201212 0.107832 1.167250 0.767229 -0.205438 0.60758
-0.198605 0.107624 1.165000 0.629131 -0.210232 0.748329
-0.196133 0.107485 1.163500 0.478413 -0.319597 0.817911
-0.193625 0.107324 1.161750 0.557961 -0.159716 0.814353
-0.191289 0.107254 1.161000 0.305623 0 0.952152
-0.182404 0.107231 1.160750 0.0976357 -0.391014 0.915192
-0.180037 0.107139 1.159750 0.323859 -0.486815 0.81125
-0.177598 0.107000 1.158250 0.466322 -0.389531 0.794235
-0.175203 0.106885 1.157000 0.4069 -0.407738 0.817424
-0.172812 0.106769 1.155750 0.378381 -0.512164 0.771048
-0.170362 0.106613 1.154063 0.472515 -0.49147 0.731565
-0.167999 0.106509 1.152938 0.339677 -0.548687 0.763913
-0.165812 0.106515 1.153000 -0.0189839 -0.685207 0.728101
-0.163652 0.106538 1.153250 -0.0719888 -0.721314 0.688857
-0.154890 0.106556 1.153437 -0.0587883 -0.667337 0.742432
-0.152743 0.106590 1.153813 -0.139687 -0.512614 0.84718
-0.150570 0.106608 1.154000 -0.0754902 -0.402882 0.912134
-0.148468 0.106677 1.154750 -0.267932 -0.536254 0.800403
-0.146458 0.106815 1.156250 -0.407771 -0.680218 0.60912
-0.144443 0.106954 1.157750 -0.368942 -0.738836 0.563917
-0.142422 0.107093 1.159250 -0.387224 -0.710685 0.587354
-0.140305 0.107162 1.160000 -0.225646 -0.677855 0.699712
-0.138125 0.107185 1.160250 -0.0851645 -0.596954 0.797742
-0.135974 0.107231 1.160750 -0.189638 -0.47434 0.859674
-0.133791 0.107254 1.161000 -0.100091 -0.400674 0.910737
-0.131608 0.107277 1.161250 -0.100058 -0.400536 0.910802
-0.129508 0.107370 1.162250 -0.365803 -0.457341 0.810572
-0.127458 0.107508 1.163750 -0.492193 -0.492196 0.717976
-0.125349 0.107601 1.164750 -0.364836 -0.456186 0.811658
-0.123157 0.107624 1.165000 -0.104345 -0.313167 0.943948
-0.121042 0.107716 1.166000 -0.410965 -0.20537 0.888218
-0.119127 0.107993 1.169000 -0.816551 -0.203761 0.540117
-0.117200 0.108270 1.172000 -0.799715 -0.266126 0.538176
-0.115066 0.108363 1.173000 -0.394711 -0.295972 0.86983
-0.112928 0.108455 1.174000 -0.407554 -0.203716 0.890168
-0.110880 0.108640 1.176000 -0.680681 -0.169943 0.712596
-0.108732 0.108732 1.177000 -0.416162 -0.104011 0.903322
-0.106581 0.108825 1.178000 -0.421474 0 0.906841
-0.104514 0.109010 1.180000 -0.695417 0 0.718606
-0.102353 0.109102 1.181000 -0.419987 0 0.90753
-0.100146 0.109148 1.181500 -0.221768 0.110866 0.968776
-0.098041 0.109310 1.183250 -0.614456 0.350317 0.70691
-0.096050 0.109610 1.186500 -0.789468 0.423308 0.444467
-0.094259 0.110159 1.192438 -0.955127 0.0999904 0.278809
-0.092581 0.110869 1.200125 -0.961999 -0.155587 0.22439
-0.090714 0.111383 1.205688 -0.939775 -0.105163 0.325213
-0.088605 0.111619 1.208250 -0.762791 0.222627 0.607114
-0.086375 0.111712 1.209250 -0.362333 0.542421 0.757954
-0.084106 0.111758 1.209750 -0.153433 0.765115 0.625345
-0.081819 0.111781 1.210000 -0.0691756 0.827966 0.556495
-0.077257 0.111850 1.210750 -0.261878 0.631565 0.729757
-0.075044 0.111989 1.212250 -0.471443 0.607228 0.639543
-0.072780 0.112058 1.213000 -0.239234 0.715855 0.655987
-0.070440 0.112012 1.212500 0.151279 0.755047 0.63798
-0.068047 0.111873 1.211000 0.399991 0.715965 0.57219
-0.065659 0.111735 1.209500 0.427362 0.658415 0.619558
-0.061101 0.111827 1.210500 -0.328617 0.655567 0.679885
-0.058808 0.111850 1.210750 -0.090317 0.631212 0.770334
-0.056478 0.111804 1.210250 0.192968 0.482166 0.854564
-0.054162 0.111781 1.210000 0.101988 0.407702 0.907402
-0.278264 0.115264 1.222500 -0.109188 0.911046 0.397585
-0.276161 0.115359 1.223500 -0.271064 0.827338 0.491971
-0.271390 0.115311 1.223000 0.111919 0.878929 0.463635
-0.261911 0.115241 1.222250 0.156763 0.885721 0.436948
-0.259211 0.115076 1.220500 0.354268 0.808261 0.470329
-0.256610 0.114952 1.219187 0.26224 0.859546 0.438647
-0.254209 0.114917 1.218812 0.0652474 0.942136 0.32882
-0.251694 0.114828 1.217875 0.151532 0.935788 0.318337
-0.249195 0.114746 1.217000 0.145742 0.933285 0.328236
-0.244383 0.114663 1.216125 0.167229 0.904936 0.391313
-0.241893 0.114581 1.215250 0.182051 0.881806 0.435059
-0.239516 0.114551 1.214937 0.0820226 0.834473 0.544911
-0.237031 0.114469 1.214062 0.288373 0.576332 0.764645
-0.234465 0.114345 1.212750 0.427838 0.427838 0.796185
-0.231629 0.114086 1.210000 0.66541 0.363344 0.652082
-0.228341 0.113597 1.204813 0.834381 0.211787 0.508876
-0.224510 0.112825 1.196625 0.904944 0.0973012 0.414257
-0.220640 0.112017 1.188063 0.910373 -0.0200901 0.413301
-0.217539 0.111587 1.183500 0.797095 -0.219463 0.562561
-0.214920 0.111399 1.181500 0.53683 -0.403802 0.740782
-0.212310 0.111210 1.179500 0.554337 -0.347431 0.756308
-0.209707 0.111021 1.177500 0.570701 -0.286096 0.769708
-0.207156 0.110856 1.175750 0.49345 -0.424133 0.759354
-0.204481 0.110621 1.173250 0.563333 -0.509032 0.650802
-0.201600 0.110267 1.169500 0.699347 -0.421759 0.57709
-0.198860 0.109984 1.166500 0.678191 -0.340405 0.651292
-0.196301 0.109796 1.164500 0.576225 -0.288873 0.764537
-0.193792 0.109631 1.162750 0.531287 -0.304328 0.790644
-0.191453 0.109560 1.162000 0.274182 -0.366067 0.88928
-0.180309 0.109513 1.161500 0.163437 -0.573189 0.802959
-0.177867 0.109371 1.160000 0.430681 -0.503862 0.748757
-0.175430 0.109230 1.158500 0.449012 -0.450176 0.771835
-0.173111 0.109159 1.157750 0.227459 -0.608038 0.760626
-0.170758 0.109065 1.156750 0.25765 -0.694599 0.671676
-0.168446 0.108994 1.156000 0.183099 -0.750191 0.635364
-0.166316 0.109041 1.156500 -0.115863 -0.813225 0.570299
-0.164184 0.109089 1.157000 -0.110226 -0.829066 0.548179
-0.148854 0.109159 1.157750 -0.191672 -0.768122 0.610942
-0.146838 0.109301 1.159250 -0.368645 -0.738251 0.564877
-0.144755 0.109395 1.160250 -0.281194 -0.703929 0.652238
-0.142606 0.109442 1.160750 -0.179653 -0.539332 0.822706
-0.140456 0.109489 1.161250 -0.189505 -0.474118 0.859826
-0.138304 0.109536 1.161750 -0.17941 -0.538727 0.823156
-0.133849 0.109513 1.161500 0.106097 -0.212331 0.971421
-0.131722 0.109584 1.162250 -0.294221 -0.392365 0.871483
-0.129675 0.109725 1.163750 -0.492194 -0.492194 0.717977
-0.127568 0.109819 1.164750 -0.382165 -0.382165 0.841368
-0.125376 0.109843 1.165000 -0.111436 -0.111436 0.987504
-0.123184 0.109866 1.165250 -0.11139 -0.11139 0.987514
-0.121120 0.110008 1.166750 -0.552622 -0.27611 0.786367
-0.119203 0.110291 1.169750 -0.816216 -0.203645 0.540667
-0.117225 0.110526 1.172250 -0.778271 -0.07767 0.623106
-0.115090 0.110621 1.173250 -0.418069 -0.104449 0.902391
-0.112976 0.110739 1.174500 -0.490873 -0.196204 0.848851
-0.110927 0.110927 1.176500 -0.680367 -0.169864 0.712914
-0.108802 0.111045 1.177750 -0.474245 -0.284399 0.833192
-0.106649 0.111139 1.178750 -0.392049 -0.293986 0.871705
-0.104536 0.111281 1.180250 -0.572095 -0.0952837 0.814634
-0.102353 0.111351 1.181000 -0.324889 0 0.945752
-0.100167 0.111422 1.181750 -0.319623 -0.10653 0.941537
-0.098061 0.111587 1.183500 -0.632313 -0.090252 0.769438
-0.095989 0.111799 1.185750 -0.7251 0.241075 0.645068
-0.094180 0.112336 1.191437 -0.94427 0.1651 0.284773
-0.092562 0.113131 1.199875 -0.982185 0.0288913 0.185683
-0.090638 0.113585 1.204687 -0.917742 0.18979 0.348897
-0.088440 0.113709 1.206000 -0.401181 0.685733 0.607309
-0.086196 0.113779 1.206750 -0.228103 0.758214 0.610804
-0.081565 0.113732 1.206250 0.117361 0.877705 0.464608
-0.079301 0.113779 1.206750 -0.130942 0.848335 0.513013
-0.077114 0.113944 1.208500 -0.505308 0.647527 0.570414
-0.074889 0.114062 1.209750 -0.364954 0.727608 0.580857
-0.072600 0.114086 1.210000 -0.0692135 0.82845 0.55577
-0.070281 0.114062 1.209750 0.0726482 0.797557 0.598853
-0.067920 0.113968 1.208750 0.30618 0.688143 0.65781
-0.065550 0.113850 1.207500 0.38916 0.622248 0.679237
-0.061000 0.113944 1.208500 -0.329174 0.656682 0.678537
-0.058723 0.113991 1.209000 -0.179415 0.626819 0.758227
-0.277496 0.117268 1.219125 -0.144633 0.86491 0.480637
-0.275216 0.117286 1.219313 -0.040943 0.911088 0.410173
-0.272824 0.117256 1.219000 0.0637272 0.914367 0.39984
-0.270446 0.117232 1.218750 0.0534313 0.905458 0.421059
-0.261107 0.117208 1.218500 0.0587477 0.878764 0.473626
-0.258680 0.117160 1.218000 0.148979 0.743705 0.651696
-0.256176 0.117076 1.217125 0.272261 0.641118 0.717524
-0.253597 0.116956 1.215875 0.318098 0.746452 0.584485
-0.251035 0.116841 1.214687 0.291266 0.780511 0.553142
-0.248607 0.116787 1.214125 0.154892 0.790252 0.592882
-0.243868 0.116733 1.213562 0.165084 0.750758 0.639617
-0.241445 0.116679 1.213000 0.175783 0.702236 0.689902
-0.236726 0.116631 1.212500 0.179227 0.559489 0.809228
-0.234127 0.116487 1.211000 0.447771 0.522287 0.725753
-0.231246 0.116198 1.208000 0.666924 0.444998 0.597653
-0.227997 0.115717 1.203000 0.81378 0.295787 0.500273
-0.224345 0.115020 1.195750 0.892007 0.108229 0.438874
-0.220721 0.114322 1.188500 0.891071 -0.054117 0.450626
-0.217722 0.113938 1.184500 0.775697 -0.194728 0.600313
-0.215102 0.113745 1.182500 0.568319 -0.284898 0.771911
-0.212490 0.113553 1.180500 0.569271 -0.285374 0.771033
-0.209885 0.113360 1.178500 0.570224 -0.285852 0.770151
-0.207376 0.113216 1.177000 0.457827 -0.382421 0.802588
-0.204829 0.113048 1.175250 0.458061 -0.525204 0.717176
-0.202030 0.112735 1.172000 0.635924 -0.491592 0.594927
-0.199159 0.112375 1.168250 0.729846 -0.342189 0.591804
-0.196470 0.112110 1.165500 0.680571 -0.248297 0.689327
-0.194042 0.111990 1.164250 0.38681 -0.465264 0.796183
-0.191783 0.111966 1.164000 0.0787042 -0.630923 0.771843
-0.180620 0.111918 1.163500 0.15466 -0.619856 0.769323
-0.178173 0.111773 1.162000 0.41225 -0.551319 0.725326
-0.175733 0.111629 1.160500 0.412684 -0.551983 0.724574
-0.173448 0.111581 1.160000 0.146847 -0.662253 0.734749
-0.149175 0.111605 1.160250 -0.0716151 -0.71757 0.692795
-0.147028 0.111653 1.160750 -0.179598 -0.53918 0.822818
-0.144849 0.111677 1.161000 -0.104735 -0.31439 0.943498
-0.140486 0.111725 1.161500 -0.222636 -0.111295 0.968528
-0.138423 0.111845 1.162750 -0.464996 -0.371924 0.8034
-0.136237 0.111870 1.163000 -0.0948612 -0.474757 0.87499
-0.133964 0.111821 1.162500 0.190809 -0.382156 0.904184
-0.131863 0.111918 1.163500 -0.365206 -0.456602 0.811258
-0.129786 0.112038 1.164750 -0.463157 -0.370411 0.805159
-0.127595 0.112062 1.165000 -0.111437 -0.111436 0.987504
-0.125403 0.112086 1.165250 -0.11139 -0.11139 0.987514
-0.123289 0.112182 1.166250 -0.381145 -0.381145 0.842293
-0.121275 0.112375 1.168250 -0.605633 -0.45404 0.653496
-0.119305 0.112615 1.170750 -0.736637 -0.294286 0.608902
-0.117275 0.112807 1.172750 -0.683279 -0.170593 0.709949
-0.115188 0.112952 1.174250 -0.529871 -0.353112 0.771069
-0.113096 0.113096 1.175750 -0.508331 -0.423527 0.749817
-0.111021 0.113264 1.177500 -0.590828 -0.337418 0.732852
-0.108940 0.113433 1.179250 -0.546229 -0.468103 0.694632
-0.106785 0.113529 1.180250 -0.342162 -0.513443 0.786957
-0.104603 0.113601 1.181000 -0.301075 -0.301077 0.904824
-0.102418 0.113673 1.181750 -0.300802 -0.300802 0.905006
-0.100252 0.113769 1.182750 -0.374791 -0.37479 0.847977
-0.098144 0.113938 1.184500 -0.585987 -0.334614 0.738006
-0.096090 0.114178 1.187000 -0.706121 -0.352689 0.614006
-0.094210 0.114641 1.191813 -0.926635 -0.0719431 0.369014
-0.092403 0.115218 1.197813 -0.91724 0.313173 0.246157
-0.090394 0.115567 1.201437 -0.704625 0.628143 0.33006
-0.088234 0.115735 1.203187 -0.459771 0.736129 0.496714
-0.086036 0.115861 1.204500 -0.401523 0.686324 0.606415
-0.081358 0.115735 1.203187 0.334046 0.77831 0.531646
-0.079062 0.115729 1.203125 0.0152103 0.880161 0.474431
-0.076886 0.115904 1.204937 -0.413305 0.808772 0.41841
-0.074657 0.116006 1.206000 -0.246511 0.866596 0.433871
-0.067752 0.115982 1.205750 0.0690284 0.826505 0.558681
-0.065428 0.115934 1.205250 0.160197 0.719888 0.675351
-0.060862 0.115982 1.205750 -0.145551 0.798457 0.584193
-0.058577 0.116006 1.206000 -0.0693308 0.829781 0.553766
-0.276785 0.119284 1.216000 -0.101834 0.846398 0.522724
-0.274384 0.119247 1.215625 0.088798 0.871003 0.483186
-0.271985 0.119210 1.215250 0.0877698 0.875214 0.475706
-0.269614 0.119186 1.215000 0.0588287 0.879924 0.471457
-0.267190 0.119137 1.214500 0.10605 0.898503 0.425964
-0.264822 0.119112 1.214250 0.0511444 0.91749 0.394458
-0.262563 0.119137 1.214500 -0.0540495 0.915538 0.398583
-0.260357 0.119186 1.215000 -0.125436 0.875026 0.467541
-0.258096 0.119210 1.215250 -0.0735374 0.806967 0.586
-0.255663 0.119155 1.214687 0.169188 0.731986 0.659979
-0.253114 0.119045 1.213562 0.324848 0.667105 0.670407
-0.250532 0.118916 1.212250 0.361982 0.671624 0.646444
-0.248018 0.118818 1.211250 0.265164 0.76116 0.591882
-0.245660 0.118793 1.211000 0.0668265 0.833435 0.548561
-0.243253 0.118744 1.210500 0.133476 0.815876 0.56261
-0.240848 0.118695 1.210000 0.135217 0.809687 0.571071
-0.236189 0.118671 1.209750 0.072353 0.794251 0.603266
-0.233692 0.118573 1.208750 0.298321 0.670492 0.679297
-0.230851 0.118297 1.205938 0.643038 0.47184 0.603215
-0.227689 0.117849 1.201375 0.800544 0.285814 0.526725
-0.224381 0.117316 1.195938 0.852625 -0.0295416 0.521687
-0.221093 0.116782 1.190500 0.803788 -0.29749 0.515194
-0.218182 0.116439 1.187000 0.655226 -0.470403 0.5911
-0.215512 0.116218 1.184750 0.522763 -0.524721 0.671854
-0.212805 0.115973 1.182250 0.595518 -0.418371 0.685802
-0.210152 0.115752 1.180000 0.577738 -0.386344 0.718998
-0.207596 0.115581 1.178250 0.509247 -0.364649 0.77955
-0.205004 0.115385 1.176250 0.571483 -0.286451 0.768995
-0.202246 0.115090 1.173250 0.690582 -0.288759 0.66311
-0.199415 0.114747 1.169750 0.723608 -0.311456 0.615943
-0.196681 0.114453 1.166750 0.693096 -0.289816 0.660019
-0.194208 0.114305 1.165250 0.477638 -0.319083 0.818565
-0.191948 0.114281 1.165000 0.0970924 -0.388788 0.916197
-0.180814 0.114256 1.164750 0.092545 -0.463364 0.881323
-0.178442 0.114158 1.163750 0.307866 -0.540113 0.78326
-0.176036 0.114036 1.162500 0.355575 -0.570488 0.740344
